# 3D point list with one line of data per point:
#   POINT3D_ID, X, Y, Z, R, G, B, ERROR, TRACK[] as (IMAGE_ID, POINT2D_IDX)
# Number of points: 407, mean track length: 2.3784711388455539
4931 0.54236692654038887 -0.14940436777246485 0.10347824697568263 196 159 143 1.3718379492470563 2 13598 1 10723
4930 -1.5632038035649856 0.20578366796097447 -0.070642842798488564 250 249 239 1.5278357961154421 2 7781 1 10722
4929 0.34330209216108626 -0.19898795818028214 0.02146799683481981 71 64 55 0.097199228995411058 3 11825 1 10721 2 12016
4928 0.19480017254794638 0.40722151079511554 -0.17004408926002976 224 195 155 0.46811003065501627 2 10229 3 5962 1 10720
4927 0.23514007284009056 0.47502030297443509 -0.19501806610406358 233 203 181 0.057894031653819247 2 10775 1 10719
4926 0.11852260786081815 -0.38042444538107417 0.1424350880221974 231 199 174 0.21463698705407661 2 9081 1 10717
4925 0.56407802141959695 -0.18393245823909396 0.11932172479516312 253 243 211 0.37199475899658463 2 13529 1 10715
4924 0.45583557354587118 -0.21509719847006184 0.11861285035287057 119 104 88 0.36612303653883504 2 4808 3 12485 1 10708
4923 0.42067621375722147 -0.15077381491613798 0.088495554290417791 243 209 173 0.33491173780862876 2 10269 3 12168 1 10707
4922 0.49113050008472658 -0.18862500342516147 0.11246928033914778 199 169 139 0.17202791233061787 2 10599 1 10705
4921 0.059045305268485261 0.39215762864091058 -0.18071069852951874 225 180 151 0.16750516174106977 2 5212 1 10699
4920 0.52935155765371356 -0.049996015826571122 0.069632107657054701 254 252 239 0.040833276270510255 2 14032 1 10693
4919 0.54882668424974179 -0.026771568303372954 0.080841659815328759 104 92 81 0.53460001128185008 2 5091 1 10689
4918 0.56789808583929291 -0.20162306578369238 0.12870909163004859 170 130 114 0.26120449837557103 2 13498 3 10523 1 10683
4917 0.18832026960367762 0.15101005762999406 -0.06566194326028979 209 182 150 0.1849154958048134 2 11931 1 10682
4916 0.54134841239110132 -0.13753186307231371 0.097220228043238058 254 242 210 0.46427929590575295 2 13588 1 10681
4915 0.24152451333274233 0.48947258713547237 -0.19879813894862747 152 119 110 0.21217274743301642 2 13616 3 14561 1 10678
4914 0.26723427427038743 0.18933853303910206 -0.072682037722480816 235 198 170 0.11491967916368109 2 10082 1 10676
4913 0.58724948454827375 -0.12133644402188157 0.11374705338289173 250 241 216 0.29942400450186196 2 12274 3 14086 1 10669
4912 0.12373339803561401 -0.24555270319467312 0.097702414650714803 71 63 51 0.46776292854042484 2 6730 1 10668
4911 0.3268897546883005 -0.38546396218172285 0.17411405770859675 174 150 119 0.052722313648551053 2 7555 1 10665
4910 0.11212349118859682 0.42590974687988936 -0.18773984819329478 221 186 148 0.21705817639351824 2 10310 3 14861 1 10664
4909 0.34296674360903739 0.12981194492848533 -0.037791248201673254 122 102 79 0.50651853694648397 2 5734 1 10663
4908 0.30719555997355402 0.44027278299543704 -0.13062571761150474 152 141 124 0.34791769406633849 3 13726 1 10661 2 7676
4907 0.41618801184952253 -0.20482644612125353 0.071862690189291936 57 39 34 0.26121094379661047 2 10411 1 10656
4906 0.60543134592435488 -0.20244065023257057 0.13839332818706285 165 142 125 0.23658342588569312 2 12511 3 11350 1 10653
4905 0.307195932124948 0.30119107663889283 -0.11483884675577095 254 250 199 0.21945036970793169 3 14171 1 10652
4904 0.11195354498255392 -0.19960137717012139 0.084725183639564869 143 124 106 0.058758494182740095 2 11603 1 10651
4903 -0.17804901604552334 0.19126392985273744 -0.12079017078765548 133 116 93 0.34838530113085509 2 8999 1 10643 3 9404
4902 -0.21153856905362881 -0.61534375226698268 0.1997273729230257 215 195 165 0.26232142675745396 3 9021 1 10640
4901 0.21098633181755189 0.24248950629454988 -0.10102807776278763 255 253 229 0.25486350211646491 2 10542 1 10638
4900 0.2645090318120048 0.14004481710080355 -0.052910489393407444 149 128 101 0.14387365769417421 3 10896 1 10637
4899 0.23749101773397216 0.45698404104231899 -0.18780390539993144 254 248 214 0.034773941853491044 3 14581 1 10636
4898 0.56888285910170289 -0.10257054938314301 0.098986057820093107 232 215 190 0.20995728756395773 2 12736 1 10633
4897 0.40180392745528754 0.25186917904452483 -0.041612770920049856 105 79 68 0.40181667446771341 3 13056 1 10629
4896 0.25351902463862031 0.52797471605362789 -0.2024326361658223 195 149 116 0.10477368900181933 3 12749 1 10627
4895 0.48492480204832 0.067619301377030067 0.008000723903822414 100 77 61 0.1425377238425535 2 14082 3 5470 1 10624
4894 0.39656549096510907 0.25802200807385078 -0.079808934701690579 157 148 121 0.24715324479022524 2 13916 3 14510 1 10614
4893 0.34648494721293777 0.35788546201407057 -0.12666401042210901 172 158 126 0.30707818584737967 2 14210 3 12918 1 10611
4892 0.33968804599766911 0.37362737570360893 -0.13420385842949561 159 140 122 0.48132106891587989 3 12924 1 10610
4891 0.58434901030032593 -0.14988189502116214 0.11626081246010256 250 245 216 0.2358685748045066 2 12497 3 10975 1 10607
4890 0.42634793724576781 0.19734536350689225 -0.051300807942370283 158 127 104 0.34654884182407569 2 13935 1 10606
4889 0.32532094302178621 0.40141347107278558 -0.14747525198203776 149 144 119 0.18603578848351504 3 13162 1 10605
4888 0.61357605975726071 -0.20998334622017692 0.14535640338836134 154 130 116 0.29072105810846083 2 12705 3 11394 1 10603
4887 0.47172257055330641 0.094912775564391691 -0.00034909113353393152 41 31 23 0.14304100683627935 3 15062 1 10599
4886 0.56052329724811589 -0.097560891107360839 0.089884381288217866 135 99 86 0.59634951486820542 3 5746 1 10598
4885 0.37226495405266358 0.30533343407029961 -0.10591899433869531 138 114 99 0.37639155350267162 2 14178 3 14505 1 10595
4884 0.31638063063015753 0.41735790472525808 -0.15458192901412976 162 146 123 0.24828392200878877 2 14183 3 13080 1 10594
4883 0.53425121310260348 -0.051330804352557713 0.071623735543525552 254 253 237 0.066766084385361302 2 12592 1 10593
4882 0.2830882965591453 0.47917186824958191 -0.18281320403411075 189 127 89 0.018677617401727284 2 13500 1 10592
4881 0.55812759579131865 -0.092114926517145618 0.089224365857070789 247 241 208 0.26122194191592785 2 12553 3 11127 1 10591
4880 0.55747986761800261 -0.095209737060735475 0.089045444849490923 172 142 130 0.13740748709060072 2 7695 3 11091 1 10590
4879 0.56157312043258056 -0.10435339554389234 0.093898788117638909 145 115 99 0.13981202807550733 2 14354 3 11178 1 10589
4878 0.58417802752747805 -0.14733778585193597 0.11611822449677135 170 145 133 0.11761780630909524 2 7748 3 7564 1 10588
4877 0.56694482900977128 -0.11013145131781209 0.097657121237591751 221 212 195 0.17404164356715249 2 9327 3 11084 1 10587
4876 0.56941668574673943 -0.11639337293334337 0.1016653559609757 251 239 196 0.23138107269077765 2 7688 3 5782 1 10586
4875 0.31445714623044513 0.41945807075040881 -0.15892924507372339 161 130 107 0.24639614730453255 2 14357 3 13161 1 10583
4874 0.3417748483260391 0.36692656610096641 -0.13467596787612079 195 161 135 0.051771245987646014 2 14186 1 10582
4873 0.59601944319753142 -0.17139246450367818 0.12755116637987479 252 249 234 0.32730562173796135 2 12729 3 10924 1 10581
4872 0.54839341740139302 -0.075500043915519344 0.082587227011414618 252 246 207 0.20407448257211858 2 14445 1 10579
4871 0.39047362069995312 0.28057231221201245 -0.097524950622629461 129 108 90 1.4673515291416392 3 8071 1 10576
4870 0.35025369800849715 0.35460455512681771 -0.12688195775385239 160 144 122 0.50901017299137896 3 14743 1 10573
4869 0.47210812018238518 0.090892973435075616 -0.0015370328301562979 54 44 31 0.11530195811966347 2 13997 3 13842 1 10571
4868 0.41668348703057462 0.25420818493697339 -0.090102739918714814 111 92 74 0.58655436287201845 2 7797 1 10570
4867 0.2971333987662636 0.45764717428336193 -0.17581672471658741 126 94 77 0.098477982595871538 2 13496 1 10569
4866 0.58697841571114362 -0.16005300655855254 0.12039502643193178 151 127 111 0.43889859952959753 2 7671 1 10568
4865 0.35619555725968421 0.33871488049335668 -0.12078931266928811 144 119 98 0.16416543247611287 2 14254 1 10566
4864 0.59474005635299054 -0.17455028722695132 0.12686842348444349 178 150 136 0.11891026818322067 2 12524 1 10562
4863 0.25947472256485771 0.51802184001503637 -0.20174967355012105 158 126 106 0.27173817166258885 3 12825 1 10559
4862 0.35902729869360067 0.33176741617199623 -0.11499319503305522 166 147 124 0.049993346914499623 2 14161 1 10558
4861 0.5674175013432996 -0.11860629640952261 0.10151312201922635 136 110 95 0.26926431334600021 2 12598 1 10555
4860 0.47634961351707916 0.088526563193276619 -2.1828141119851094e-05 52 40 32 0.16729675342158745 3 13756 1 10554
4859 0.36819987188198572 0.30931281290391871 -0.10289729316691347 121 99 88 0.33745452421389843 3 14680 1 10552
4858 0.27190006990867271 0.48807341635055079 -0.18773281338925951 228 207 169 0.017121097319139196 2 5540 1 10551
4857 0.36003309787250493 0.33110942070530208 -0.10643465308493089 178 162 131 0.2585330256517549 2 7800 3 7919 1 10543
4856 0.36599161928360791 0.32294416262672965 -0.10343068441581843 176 156 132 0.35412670267434487 2 13893 3 7931 1 10542
4855 0.39029219274716903 0.27209766415650183 -0.079264403557632493 164 147 121 0.3116233937631237 2 14101 1 10541
4854 0.51751487236655913 -0.015570896256070693 0.063398545408455076 196 161 139 0.22054365752211752 2 12523 1 10539
4853 0.55617667299017504 -0.071411775780535425 0.0843987777619951 245 226 193 0.28795672764844593 2 12743 1 10538
4852 0.30663071266644665 0.43769745267838683 -0.15594123960625247 77 57 46 0.072316693850951685 2 14231 1 10536
4851 0.3204432804245323 0.4097456636809394 -0.14233587168160614 147 134 111 0.82798597923782069 3 12709 1 10535
4850 0.5783686149139573 -0.12210797117324235 0.11011370660378066 225 211 189 0.13021490447153636 2 12643 3 14125 1 10532
4849 0.60177495022212324 -0.16977352534695231 0.13256015103022531 153 128 114 0.18345918821137444 2 12676 3 11201 1 10530
4848 0.61600410043307174 -0.19660495411025883 0.14464860137758737 225 212 176 0.11953106071680601 2 14634 3 10973 1 10529
4847 0.26768720779898442 0.50094345105496552 -0.1811343103555613 196 178 145 0.40441302004537016 2 14174 3 12786 1 10528
4846 0.3540393623448263 0.34617455162452937 -0.11240006788479892 163 149 125 0.44664120086598902 3 13099 1 10524
4845 0.38119253555482341 0.29148579193632124 -0.086901176809443439 176 158 137 0.35348721275690265 2 14088 3 12981 1 10523
4844 0.40213501812199398 0.24830325503782466 -0.066678259354924815 82 66 54 0.12152321221969403 3 14507 1 10522
4843 0.54306550004906873 -0.054788842091116549 0.077233372178202669 254 250 230 0.48846953494296796 2 12724 1 10519
4842 0.26901274707513617 0.5039035501579624 -0.18663072940269332 200 176 145 0.30667360133306376 2 5570 1 10517
4841 0.28958968089261167 0.47056432579110763 -0.1726085077817249 101 65 61 0.37932820216205043 3 12878 1 10516
4840 0.3177670623591406 0.41263300125098601 -0.14535198605776378 125 120 104 0.41069093964080627 3 12671 1 10514
4839 0.34715953211380229 0.35578141018884762 -0.11895649177738461 136 127 109 0.24574305927483678 2 9339 1 10513
4838 0.55820554910461717 -0.078533379297298589 0.087325395322456409 158 141 125 0.16360053402143959 2 12765 3 14021 1 10511
4837 0.59747092288287618 -0.15760274815553257 0.12546084937960822 236 213 188 0.19884744646607544 3 11085 1 10509
4836 0.33755627884819189 0.37848630170778141 -0.1300783131228683 138 123 114 0.23905274621375874 3 13049 1 10508
4835 0.40664792973662323 0.24058865565985887 -0.065695230756929027 105 93 75 0.051737859499525529 2 14133 1 10507
4834 0.56419141551879437 -0.088097849363934944 0.091565714609759541 253 245 219 0.16502651590491815 2 12751 3 14037 1 10505
4833 0.61692224184313282 -0.20090065507541086 0.14601656540731803 233 224 188 0.26213810393716791 2 12313 3 10982 1 10504
4832 0.26024419907358715 0.52480315850885539 -0.19632530048356955 189 162 130 0.25809962427005018 2 14236 1 10503
4831 0.26381924334166607 0.5145548347126091 -0.19043690904584684 193 168 139 0.24782028883868715 2 14158 3 7618 1 10502
4830 0.34071111914105601 0.36937364922209653 -0.12446706899674942 186 174 148 0.25405982126259014 2 14000 3 13164 1 10501
4829 0.4097167861475709 0.23141395027525247 -0.060233699658979005 162 144 119 0.20983686451339878 2 14106 3 14467 1 10500
4828 0.57468519032670984 -0.11432355072922613 0.10575326367949191 143 117 112 0.14496893496226729 2 12640 3 14098 1 10498
4827 0.3270512135700725 0.39636215974272848 -0.13791590850126392 148 128 108 0.4854207885140544 3 13065 1 10497
4826 0.38853285277040256 0.2764590965860822 -0.07780604578467587 167 152 127 0.23369440108786063 2 14110 3 12964 1 10494
4825 0.39247751521921403 0.27240005741168777 -0.077165776561321814 114 89 76 0.2491210315823649 3 12984 1 10493
4824 0.37840435449393445 0.29633645077386733 -0.08645361112844098 170 150 129 0.40757452716234049 2 14123 3 13005 1 10490
4823 0.39638055704080882 0.25992109925554258 -0.069717830392264535 159 143 119 0.22942325545449693 2 14038 1 10489
4822 0.56768858618161777 -0.08562058835993451 0.092574053806748824 223 211 190 0.18923113971675176 2 12672 1 10487
4821 0.44398027572914683 0.21037172063092849 -0.060636162158475275 92 71 59 1.4520276122488003 3 14431 1 10486
4820 0.27163200407189431 0.49613782328259182 -0.17637674787770694 124 103 88 0.27221399390108808 2 14175 3 13528 1 10483
4819 0.414915306559487 0.22331965109262319 -0.052238406388459363 109 88 77 0.2092951736124925 3 14456 1 10480
4818 0.48570659908902231 0.078681487926237664 0.016216543740809275 114 104 89 0.40342153743367903 2 12558 1 10478
4817 0.58908328829261836 -0.12793662822431379 0.1132400035159157 243 230 200 0.38790218613354505 2 12324 3 14127 1 10477
4816 0.47037151383629189 0.03328185321872798 0.053309596795055106 200 179 150 0.041809032583534592 3 14234 1 10471
4815 0.56185216822821504 -0.08167253992063464 0.090435517206545926 251 247 221 0.29177813313858819 2 12634 3 14085 1 10470
4814 0.60515385949174128 -0.17429459119874244 0.13527497190911722 245 233 203 0.24540808123312483 2 12289 3 11176 1 10469
4813 0.61363604851611331 -0.18999916514811549 0.14224363584161628 222 203 174 0.30676565811611728 2 12334 3 11142 1 10468
4812 0.29390701418024884 0.46267602342929121 -0.16567890217657316 179 162 135 0.21032334227722635 2 14237 3 12859 1 10467
4811 0.34321842145088044 0.36443054287390292 -0.11973095179059245 111 92 77 0.44364542045908856 2 13901 3 7980 1 10464
4810 0.4912701083367853 0.17684584637355255 -0.058630534970254687 86 83 74 0.21970913380638257 3 3725 1 10463
4809 0.55871810198380034 -0.071782245635862843 0.08572365395094135 210 180 158 0.65535939233281482 2 12641 3 5911 1 10462
4808 0.59582424156748104 -0.14819172228585387 0.12095720480165009 152 118 109 0.70173109800201183 2 12300 3 4416 1 10459
4807 0.60158372851926278 -0.16493057824681448 0.13059043540211906 242 222 187 0.20867575449079373 2 12288 1 10458
4806 0.26996986283162228 0.49700147931257282 -0.17831530650481611 175 163 139 0.2301424596375834 2 14168 1 10456
4805 0.3489903627559286 0.35680429079754283 -0.11720485535526989 151 139 116 0.32401423926190087 2 13894 1 10455
4804 0.41634129076844617 0.22134967785461143 -0.053535390982341335 181 161 137 0.10458007179663328 3 8075 1 10453
4803 0.52014912040314798 -0.015957550779528724 0.064996048482112184 252 241 208 0.24394362731654348 2 12722 1 10451
4802 0.55370882781081143 -0.081232637095794827 0.086884269680172599 172 138 122 0.38319918010522297 2 7743 3 14146 1 10448
4801 0.60027695575790774 -0.17472205303271704 0.13094920166719765 243 235 204 0.054348371420195447 3 10985 1 10447
4800 0.55165656792849849 -0.075136404856305183 0.084132387389192612 189 168 144 0.8261950880509723 2 12549 1 10444
4799 0.29704591945821129 0.45638530630299567 -0.16969253321338376 104 85 72 0.34535165822156 3 14868 1 10443
4798 0.47129420554794055 0.10603648067740153 -0.0024910091751222997 88 80 61 0.040284220814412158 2 14377 1 10439
4797 0.56175505392150382 -0.091405106565248848 0.091149540452653333 192 165 152 0.070675426955549708 3 14096 1 10438
4796 0.5829379434868831 -0.1383552392955818 0.11439108979305107 236 217 190 0.31223037769018797 2 12758 3 11179 1 10437
4795 0.58565000325042449 -0.14197465923906719 0.11565826593333731 251 246 215 0.29763356564487187 2 12766 3 11171 1 10436
4794 0.58858777490316849 -0.1476835234413495 0.11847675966634605 230 222 190 0.23515369679116754 2 12738 1 10435
4793 0.59893927405251224 -0.16822129675715605 0.12768200611257988 250 246 236 0.11930057254893964 3 11158 1 10434
4792 0.36595467428616213 0.31463524198463999 -0.10167845723763275 170 157 131 0.28954873232230055 3 14807 1 10429
4791 0.48438561977644157 0.077313146079741615 0.0059998490598736371 88 78 66 0.24002238155794137 2 14014 1 10426
4790 0.56729030645575218 -0.1062580669860026 0.096346761421859536 251 248 220 0.31379812695358211 2 9373 3 5757 1 10425
4789 0.60237953149115142 -0.18050188470244999 0.13207102522490699 250 246 215 0.23461423861251096 2 12759 3 10948 1 10424
4788 0.62105104916627163 -0.22002310849143811 0.15125461496109352 203 185 162 0.24582300243986133 2 12659 3 11016 1 10423
4787 0.25828093885919723 0.52209072568590675 -0.19977771233724745 144 121 96 0.351631837317046 2 14617 3 12756 1 10422
4786 0.52373928632244382 -0.03278479336924868 0.065618725909217815 251 240 222 0.35654111712111369 2 12591 1 10420
4785 0.30564068589126653 0.44568298488644076 -0.16828184635571233 151 138 120 0.010539638484735948 3 12663 1 10417
4784 0.33031943330411956 0.39077803460917282 -0.14129486660171031 107 85 73 0.1747427043488084 3 13123 1 10416
4783 0.38226160475937443 0.28634839075669433 -0.091827122076601805 167 155 130 0.32530184260724199 2 13999 3 14324 1 10414
4781 0.35602576831551919 0.34166961351818675 -0.11822227444771029 166 152 132 0.17632337329507752 2 14531 1 10410
4780 0.40240669071266549 0.24765900636070404 -0.074075005220272383 183 170 141 0.25510001802599902 3 14532 1 10409
4779 0.47706113522326149 0.089948319045375161 0.0016646811791913908 70 63 54 0.069865715971714704 3 13758 1 10408
4778 0.57444678013344486 -0.12168238187443677 0.1052527879339383 173 148 130 0.21949307825360076 2 12725 3 14781 1 10406
4777 0.60857510744288545 -0.19292954446573982 0.13908342118535255 245 235 210 0.048305753072758389 3 15021 1 10405
4776 0.56104191837799611 -0.086046486104176256 0.089854038721287721 241 233 212 0.14662328258235569 3 14144 1 10397
4775 0.58324009938111099 -0.13607575104560821 0.11424579568205193 158 137 125 0.065983527887549798 3 11063 1 10396
4774 0.61659703970319235 -0.20512334305855917 0.1476087993859953 148 124 116 0.28773112190709332 2 12673 3 10950 1 10394
4773 0.61955958872888872 -0.21154182000450464 0.15052314495535751 105 83 69 0.22691379062604072 2 12674 1 10393
4772 0.62708407484600537 -0.22108195237711892 0.15444701895078283 176 155 138 1.5068083762703381 2 7907 3 15007 1 10392
4771 0.2853026371178477 0.48065748316231222 -0.17887614702184676 206 168 141 0.30180786077769634 3 8245 1 10390
4770 0.32519291864598199 0.40232560340214896 -0.1428071728353261 111 93 79 0.12539872887494052 3 13064 1 10388
4769 0.46167017066968608 0.19437863317891657 -0.060912309159895206 182 132 103 0.052218545729367252 3 14521 1 10386
4768 0.56351566369991712 -0.091071517524119419 0.092358650992043434 246 240 222 0.086241579562038387 2 12757 1 10384
4767 0.58073592500963156 -0.12934483446675157 0.11140605713776257 223 203 165 0.12784640048754531 3 11117 1 10383
4766 0.32020538565504059 0.40936037323709695 -0.14454420094046883 92 77 68 0.18453493765209938 2 14219 3 12697 1 10382
4765 0.27642496795115234 0.48887479072626927 -0.18025092223080746 190 167 131 0.30291851953827204 2 14159 3 12865 1 10379
4764 0.53464547248128302 -0.045745810131872504 0.072458005992500227 186 171 156 0.3160389443668381 2 14420 1 10377
4763 0.61666552035800104 -0.20334312946654878 0.14467737896072938 175 148 137 0.17896351838550723 2 12691 1 10376
4762 0.24171562676335223 0.53453846422170914 -0.19782419438551185 137 107 88 1.731992639177919 2 13574 3 13544 1 10375 3 8157
4761 0.3762294901207765 0.29780799503240424 -0.094295844793332403 89 68 57 0.16456903040618176 2 13907 3 14635 1 10374
4760 0.56984442015653303 -0.11058179602968873 0.10182304511739969 221 218 193 0.1655358133869661 2 12704 3 11111 1 10369
4759 0.59483898485146947 -0.15925573597276294 0.12434508920550394 246 231 202 0.15056612443364512 2 14667 1 10368
4758 0.2887275611412875 0.47197248816360143 -0.17531709821614794 156 139 111 0.38720046499633659 2 14179 3 12826 1 10366
4757 0.40412978275299072 0.24259687739536501 -0.068315820218710785 139 127 107 0.22826429756113886 3 14515 1 10364
4756 0.47682062554529003 0.092217814141013363 0.0033802939606391563 56 44 37 0.16702138819800882 2 7829 3 13970 1 10363
4755 0.51651770216415838 -0.017240755493007461 0.061771152731888525 254 251 225 0.23341604490612983 2 12621 1 10362
4754 0.5226664447289171 -0.024923346712626023 0.064363600921432979 240 223 188 0.23206786567288534 2 12613 1 10361
4753 0.54063605974979556 -0.054005577841090183 0.076252804350628992 173 139 128 0.26325787672728757 2 12505 1 10360
4752 0.58815336732977941 -0.14530128794992758 0.11821039304068554 162 144 129 0.32723961188989914 2 12652 1 10358
4751 0.61305651472632527 -0.19602439596514376 0.1422579780741472 200 198 176 0.036089673306199048 3 10935 1 10357
4750 0.28518453209454481 0.4188938601359215 -0.16615648859940393 203 171 145 0.22693475956148199 3 14443 1 10354
4749 0.3623446185489268 0.26262316657581042 -0.092923757124248871 255 254 229 0.43954695069233657 2 3719 3 3856 1 10353
4748 0.39421653074147672 0.19962305206017245 -0.063041920258208803 255 252 231 0.45451210436442713 2 5281 3 13819 1 10351
4747 0.54082286294217352 -0.11240917189057728 0.087962595260757642 186 154 136 0.11638839447139175 2 14235 3 11362 1 10349
4746 0.5688661297247557 -0.16976777338068968 0.11511682215028293 194 172 145 0.090946663898811272 2 5432 3 4864 1 10348
4745 0.27185185303930931 0.44259600612395195 -0.17630475762863959 255 254 230 0.21840042486811628 2 13882 3 8054 1 10346
4744 0.55818850507179263 -0.14321293780257124 0.1022040851398185 253 251 225 0.3087264896459761 2 14213 3 11418 1 10343
4743 0.59920561423648799 -0.19060757954735311 0.1323521261392806 173 138 122 0.038364636505849668 2 7701 3 11402 1 10342
4742 0.58077489601513665 -0.18937058124776684 0.12483488844721424 248 231 191 0.34367101158819752 2 14006 3 11233 1 10338
4741 0.29334023148013755 0.41239340696814319 -0.16380515494243386 253 235 193 0.41630976898539485 3 8091 1 10336
4740 0.36060093883612976 0.26845479210714429 -0.094348627976909266 255 254 232 0.32293156259311318 2 3249 3 3817 1 10335
4739 0.36743339691197091 0.25617560692031888 -0.08884432541778696 255 254 239 0.30860456204377318 3 13952 1 10334
4738 0.53956063119409325 -0.10446536722595963 0.084793947456773905 238 226 190 0.34354417050419089 2 14177 3 11409 1 10331
4737 0.40612331107569916 0.18656046287907219 -0.057525046309797455 255 253 217 0.42488095218656197 2 13557 3 13820 1 10330
4736 0.2626996895090502 0.45694586889999456 -0.18411743024603527 224 193 161 0.35249500882267304 2 5387 3 8053 1 10328
4735 0.53401090902479909 -0.1039181214884124 0.083776456863098397 249 238 202 0.094753927259072224 2 14220 1 10326
4734 0.55088864992452913 -0.13535144040568373 0.097871872778457353 249 239 196 0.36698113803749477 2 14146 3 11440 1 10325
4733 0.55928511622319277 -0.14938009505558666 0.10395675183131195 254 249 216 0.44990566120243103 2 14233 1 10324
4732 0.57723053285541637 -0.19012808176129864 0.1244491914797424 162 137 119 0.21096602589212995 2 14223 3 11316 1 10323
4731 0.26330430000211846 0.40922952112481792 -0.15030723751214392 184 150 130 0.61557000222522673 2 13652 1 10322
4730 0.3416352482456958 0.29795345439073778 -0.10885511528100386 255 252 227 0.13239577799927299 2 14652 1 10321
4729 0.24722790302619166 0.49100709496322448 -0.19926431969804437 254 253 241 0.43497013856960837 2 5384 3 8119 1 10316
4728 0.37525120334458095 0.23685016941706077 -0.080709713585272513 255 255 237 0.4300843998487287 2 5307 3 5386 1 10312
4727 0.37946818987770242 0.22633602295659444 -0.075086623605931171 255 252 212 0.6198291432058971 2 13440 3 5502 1 10311
4726 0.5200321627493818 -0.070057491971927843 0.067487981498578486 234 225 203 0.36876314990843517 2 14334 1 10308
4725 0.52505696206674779 -0.080156124783462429 0.072281302737709482 203 178 155 0.14789032865534893 2 14150 3 11391 1 10307
4724 0.53194219150858768 -0.09551795468186472 0.080051755111106626 246 233 200 0.22299053141429431 2 5459 1 10306
4723 0.59153015156632804 -0.21220731570142595 0.13434766789224548 250 230 198 0.40914957992904966 2 14005 1 10305
4722 0.59214518698234642 -0.21671185982147168 0.1370761119857313 247 233 202 0.34118665667462872 2 14011 3 11301 1 10304
4721 0.34293463761375781 0.31688076265500059 -0.11781559933686681 255 253 227 0.086872924320023637 2 13448 1 10302
4720 0.4013256028699802 0.20028667764364386 -0.062760660447890901 255 254 241 0.18217884152682542 2 5535 3 5372 1 10301
4719 0.54076678024788438 -0.10135266386432099 0.083972274304972089 181 137 119 0.23962010773737646 2 5446 1 10299
4718 0.55076543187668381 -0.12105518269411519 0.093394685325618093 253 249 227 0.20410320081778602 2 13956 3 11399 1 10298
4717 0.55352759547780839 -0.12686090742352124 0.096148761859878043 254 246 210 0.37170216212049212 2 13955 1 10297
4716 0.28914789760247345 0.42067636842033201 -0.16493046967392433 179 146 113 0.19769153627466349 2 13783 3 14403 1 10293
4715 0.25653606994117328 0.49362601050262189 -0.20060145351279962 254 254 235 0.86811171655454 3 7941 1 10288 2 3750
4714 0.29718275878029921 0.41028076570670036 -0.16080809352996586 253 242 208 0.3591674687647915 2 13423 3 14315 1 10286
4713 0.32603533334506724 0.35134293705138625 -0.13307623357723519 254 241 207 0.44058232970784211 2 9362 3 14400 1 10285
4712 0.34537643108513832 0.31350424224480078 -0.11549625045622917 255 251 221 0.17304068836296749 2 13332 1 10284
4711 0.38572184748530935 0.23423083475064055 -0.078492154146261359 254 248 213 0.43637915010579142 2 5326 1 10283
4710 0.53174858433749617 -0.079938181765719055 0.07437265032763607 253 244 210 0.29699726497290668 2 14249 3 11033 1 10282
4709 0.56549127921569853 -0.14539630215208324 0.1045171361266392 252 237 206 0.3060931996718646 2 13984 3 11459 1 10281
4708 0.23922663843374498 0.52174739496322875 -0.21184501436290798 249 222 182 0.32492201977293234 2 13866 3 8030 1 10279
4707 0.54237562079151003 -0.10365227982658275 0.085234398046682022 180 153 131 0.31423369542225693 2 5497 3 11013 1 10277
4706 0.55336300905458169 -0.1327257427415828 0.098272275878262386 253 233 189 0.12834297022213736 2 5442 1 10276
4705 0.55869746652726482 -0.13901120914687268 0.10024690782441764 243 220 193 0.10523689389934981 2 5451 1 10275
4704 0.26576055659556652 0.45957400938841347 -0.18381987337959568 251 241 207 0.013515520207919253 3 8145 1 10272
4703 0.32708775208331309 0.34370498719851156 -0.13040756615877067 254 251 215 0.38451122310489788 2 13400 3 14672 1 10269
4702 0.56357598161068401 -0.1489252776447092 0.10535925037837696 246 224 195 0.23752301700045808 2 13967 3 11425 1 10266
4701 0.58903261941124296 -0.20471569596417047 0.1328839892848783 246 231 203 0.23404118231540691 2 13983 3 11318 1 10265
4700 0.26149953480553018 0.47510752521946642 -0.19205537202791284 204 171 147 0.054778445325252584 2 4447 1 10263
4699 0.34965655523431532 0.29754285866117863 -0.10827792197492322 255 253 232 0.20515541055529646 2 13439 1 10259
4698 0.28487451536271019 0.42971041201468463 -0.17026146314320564 207 179 158 0.46957272855932924 2 5450 3 14370 1 10256
4697 0.26939660206628263 0.46455944970586066 -0.18729702110248445 208 169 148 0.28373682332457534 2 14680 1 10252
4696 0.25529864384603329 0.48191407269431874 -0.19375140393892321 254 252 228 0.24605951051507716 3 13023 1 10251
4695 0.37542219058027015 0.20879664854962693 -0.069294607988086759 255 255 220 0.17921080873864773 2 5420 1 10250
4694 0.32847234798270741 0.30273704234059728 -0.11308700528861008 255 255 245 0.34363519999727021 2 5361 3 5362 1 10246
4693 0.338328769209776 0.27686445337652138 -0.099732439979169724 255 254 233 0.1594014442976513 2 13829 1 10245
4692 0.5700151505371851 -0.20236475344122559 0.12982663654213561 253 241 199 0.28639598245839692 3 10508 1 10242
4691 0.44373567845573048 0.074916239541677143 -0.0059079414782736003 84 73 63 0.15169792813975486 3 11076 1 10240
4690 0.5942495468736646 -0.23989644290074547 0.14550311615016884 219 191 173 0.3797785961770126 2 14152 1 10236
4689 0.25762244946426183 0.44588303743123475 -0.17974816838488045 255 252 224 0.29474287927869486 2 5838 3 5575 1 10235
4688 0.53164046591199743 -0.11447917838809665 0.08668044767563661 172 152 135 0.26048863755866786 2 13582 3 11239 1 10234
4687 0.53503037030740208 -0.12267951613707555 0.090736124595545059 254 251 232 0.18136963048117652 2 5531 3 7872 1 10233
4686 0.26838221244034899 0.4277135400654497 -0.17129832564763489 200 169 141 0.41362814901991546 2 13618 3 14404 1 10232
4685 0.38957984093220366 0.18431705300725257 -0.056464617975638183 254 247 202 0.37120603050317541 2 5409 3 5953 1 10231
4684 0.45215612055968107 0.15236000799550645 -0.063542280013969415 242 218 188 0.49350328692520562 2 13596 1 10230
4683 0.53901693907773562 -0.12907076166394196 0.094083737304806167 255 250 233 0.16409956751879343 2 5583 1 10226
4682 0.24022094964589377 0.46621961086998792 -0.19007670503467383 255 252 217 0.23608013895972593 2 10758 3 14319 1 10223
4681 0.32973532457324017 0.2931145281316509 -0.11016157348904587 201 168 130 0.19616498629038054 2 7530 1 10222
4680 0.56671804551453675 -0.20000766270742468 0.12659966740718648 246 231 199 0.24751929196531214 3 10619 1 10220
4679 0.33698959703096454 0.27451814121908213 -0.10001444670866676 233 201 167 0.089399372379514896 2 13657 1 10218
4678 0.32581093181041226 0.29957355488756604 -0.11148910853017191 215 172 140 0.27815185346391341 2 13653 3 13736 1 10216
4677 0.33772128343446972 0.27845418666242622 -0.10249659227406416 255 253 224 0.14779216943222589 2 5385 1 10215
4676 0.39400567771718853 0.1727226428443378 -0.054039283424110518 254 252 215 0.41675282673383385 2 13763 1 10214
4675 0.24621712493161921 0.4695390698204378 -0.19352726019475835 254 251 213 0.26179479418308788 2 5761 1 10209
4674 0.27137545876443708 0.41405786309010811 -0.16579772739458468 221 194 169 0.42103077763195107 2 5834 1 10205
4673 0.52163455365147737 -0.095274161049247116 0.07571107606490883 252 244 212 0.013349247288143944 3 11254 1 10203
4672 0.56396519919310362 -0.18843062223315757 0.12187749215985479 181 152 140 0.31576155622682683 2 5587 3 4955 1 10202
4671 0.24470995392311465 0.46686158756927665 -0.19021877939213239 222 192 166 0.091063108872114884 2 5767 3 14536 1 10201
4670 0.29485064158274737 0.36767512971159788 -0.14376947488260688 231 201 173 0.17326639585119286 3 13915 1 10200
4669 0.27536243637611524 0.42171680763255637 -0.16743003054064859 206 163 147 0.49157283581123545 2 7863 1 10197 3 14342
4668 0.3776119878860299 0.22305416859242641 -0.07546791215887258 255 251 205 0.18715687969301797 3 13818 1 10195
4667 0.53306542290376391 -0.10791351823396871 0.084601690354433351 254 252 234 0.23458528186974206 2 13535 3 11428 1 10192
4666 0.5820418838407122 -0.20877339573590262 0.13264897136127676 169 141 120 0.27012377205030175 2 14227 1 10191
4665 0.58496878266275165 -0.21654404589742193 0.13721988840857352 214 189 173 0.5563941195439599 2 14196 1 10190
4664 0.2618297372020002 0.45159234259295644 -0.18200280800975602 229 207 184 0.17996880636359452 3 8090 1 10188
4663 0.58223051677841364 -0.21908153157584612 0.1374648502612113 249 233 205 0.28853503579330358 2 5770 3 10520 1 10186
4662 0.53740408038772203 -0.11673006231403227 0.08930751688908363 248 237 208 0.2381566837408291 2 13509 1 10185
4661 0.55881738516115942 -0.1568870840357281 0.10772639068847209 247 226 202 0.14295290211874806 2 5465 1 10184
4660 0.60056039509749792 -0.24050598140299995 0.14710429938101599 247 222 189 0.19125656197165419 3 10530 1 10183
4659 0.22652128532739432 0.51996532431831777 -0.2129033990290182 211 189 165 0.24595404543525434 2 5840 1 10181
4658 0.51494263908598348 -0.069882568884350696 0.067128208212649101 151 125 113 0.20492056789435042 2 13470 3 11378 1 10180
4657 0.52982912229526391 -0.094292628864476993 0.077746888823811269 250 237 199 0.41821893118393583 2 13516 1 10179
4656 0.23623571119218148 0.50755240112547406 -0.20813385053248187 227 195 167 0.20606158818162373 2 5815 1 10177
4655 0.54495805863222502 -0.12406591188319897 0.092698120061248182 254 254 243 0.2818860190965356 2 5464 3 11412 1 10175
4654 0.2715401225772176 0.41942856525918226 -0.16668314704574047 255 249 211 0.25278779916144395 2 13619 3 14378 1 10172
4653 0.55947586650408865 -0.17022753284109798 0.11453643826008206 179 155 125 0.21794992416483897 2 13518 3 11272 1 10166
4652 0.46444003669145151 0.14391139124755475 -0.062005223051999528 142 118 113 0.0458523316189237 2 13503 1 10165
4651 0.5256599393102811 -0.099079255625750928 0.081285346171627193 253 249 224 0.64496587237461978 2 5582 3 11466 1 10164
4650 0.53718340110849694 -0.11897065040767429 0.088902787455283114 180 153 140 0.10869852599156843 2 13486 1 10163
4649 0.56571625252433633 -0.17744146384926474 0.1167208348977162 254 250 205 0.018137196799560776 2 3624 1 10162
4648 0.37106112965531179 0.22506572619419113 -0.075020851645882305 255 254 227 0.32798250198660156 2 5400 3 5508 1 10159
4647 0.55206997038097494 -0.14845880329356426 0.10359616362072155 204 171 152 0.055183860316960494 2 13517 1 10158
4646 0.22787921985503623 0.50817333075594118 -0.20678847914172543 255 253 225 0.93818651839863942 3 3672 1 10156 2 4448
4645 0.25006845686863999 0.46873522973220089 -0.18943758611046921 243 209 182 0.13013616414610074 3 8041 1 10155
4644 0.37046506565996218 0.22993027639216762 -0.077754682427289418 255 255 231 0.63069413067847668 2 3768 1 10154 3 3738
4643 0.73027726581942809 0.024484961313752829 -0.10158456194462229 103 87 65 0.15813056801858896 3 5681 1 10150
4642 0.55460265578724555 -0.14979895260169238 0.10359321697606771 250 236 196 0.13930485509691923 2 14251 3 4861 1 10149
4641 0.55578418497713733 -0.15383923425621018 0.1059468043280654 255 252 215 0.26829414511097366 2 5504 1 10148 3 7867
4640 0.25808805454064332 0.45730438730641376 -0.18452248971256227 254 247 214 0.46144301060353543 3 14470 1 10147
4639 0.32328764859806736 0.32836487747347243 -0.12532664983344854 255 255 237 0.29522990197003995 2 5363 1 10146
4638 0.52791729889323824 -0.058112979104215715 0.071358702057783108 207 176 155 0.51567451352822724 2 7770 1 10145
4637 0.54952733502084072 -0.092350932498061117 0.085592255148556159 129 103 85 0.26019646171662836 2 9314 3 11132 1 10144
4636 0.57317505934826363 -0.13986841814871595 0.10767598780351076 189 157 140 0.2047305321317536 2 14061 3 11034 1 10143
4635 0.60489895684516615 -0.20505445712587972 0.13909276561506342 252 247 221 0.31945709320879884 2 12625 3 11461 1 10142
4634 0.26300964588606718 0.49443000313406937 -0.19204011664958759 187 160 141 0.56392548094190353 2 13342 3 12679 1 10140
4633 0.29286367064617602 0.4544421521259534 -0.17838413892739485 208 169 145 0.47613949910955949 2 5329 3 7989 1 10139
4632 0.35879954203394843 0.32422606069064486 -0.11762341405193212 254 245 213 0.22558148789577789 2 13506 3 14472 1 10138
4631 0.36489527373967001 0.31009412848403767 -0.11062310232643713 198 166 147 0.23769891954227762 2 14122 3 14512 1 10137
4630 0.56006347235415199 -0.10910820482681073 0.093167660980962033 171 155 139 0.27230714587145582 2 4841 3 11157 1 10132
4629 0.58466750228872111 -0.1586266730603948 0.11641990904972856 253 249 213 0.21256128118666329 2 12593 3 11047 1 10131
4628 0.31266606801710328 0.41264963039274843 -0.15697600967424813 252 242 198 0.62275380253662582 2 5530 3 9645 1 10128
4627 0.33959984937928905 0.36267733069394081 -0.13526020028084632 249 239 202 0.1375757975797588 2 13474 1 10127
4626 0.34467650575005898 0.35382540036006832 -0.13117355773556683 234 204 176 0.17222180424663355 2 13533 3 14630 1 10126
4625 0.4193413875718266 0.20409275707706762 -0.060653894630560756 154 122 109 0.30506578644422411 2 13977 3 13925 1 10125
4624 0.54895098875784443 -0.087401088920552941 0.08347535095782839 176 141 122 0.30583895169077413 2 14031 1 10123
4623 0.57372971950401663 -0.13499072208000717 0.10560718453308825 219 214 188 0.30782766037024673 2 14368 3 10922 1 10122
4622 0.34218177410624079 0.35600058930570039 -0.13186822066463338 163 132 109 0.22134990481004624 2 13475 3 14544 1 10120
4621 0.56082130146401299 -0.11357018628810751 0.092607462451166203 200 178 162 0.13691250207283587 3 10930 1 10119
4620 0.59941899473097027 -0.19670251033996791 0.13342328854690255 160 130 117 0.35727517238801682 2 7831 3 11452 1 10118
4619 0.26181977449983113 0.50191307440104849 -0.19982855655979453 250 229 190 0.3179176795868171 2 13445 3 12680 1 10117
4618 0.28670287057835109 0.46593597042490781 -0.18652227833125987 204 174 148 0.66863079481546694 2 13385 3 13048 1 10116
4617 0.55284316525972443 -0.10426927074201897 0.090508574977488002 227 202 169 0.059651872128683059 2 14131 1 10112
4616 0.26184572743766577 0.49482513528128791 -0.19420636915719502 254 247 213 0.3911512287515358 2 13446 3 13073 1 10111
4615 0.56374232686499626 -0.11910434600448512 0.096346216195112466 234 223 187 0.037474427635240733 3 5839 1 10108
4614 0.57440370147071829 -0.1428498785643133 0.10844799020447848 178 154 137 0.28136502347746778 2 14066 3 11055 1 10103
4613 0.27424731834374333 0.48173921697241628 -0.18949585253249168 227 195 165 0.041395176962427366 2 13394 1 10100
4612 0.3024145444748933 0.43552511953400341 -0.16991160084847573 252 248 216 0.28665744029783857 2 5550 3 8016 1 10099
4611 0.35211463706547874 0.33585148978588536 -0.12355964046707478 254 238 202 0.093178512757687945 3 14492 1 10096
4610 0.37215154959346558 0.29624210954519087 -0.10471116825568806 193 160 132 0.37061713621008091 2 14228 3 14509 1 10095
4609 0.61548211352775717 -0.22891293320272316 0.14941757888396817 163 134 118 0.11019020434292413 2 12616 3 11435 1 10094
4608 0.27629765601505957 0.48271002903714894 -0.18731776784658477 144 112 89 0.31631945540141293 3 12737 1 10090
4607 0.3433334631398125 0.357689813137197 -0.13087974403099109 250 240 198 0.22194439934662288 2 14239 3 12954 1 10089
4606 0.364794860747432 0.31828567146157999 -0.11292273377877553 227 208 175 0.30604100192528805 2 14244 1 10088
4605 0.37068382232560104 0.31211991966134095 -0.1114318692824624 143 111 96 0.2951902671567771 3 14360 1 10087
4604 0.57308101398078282 -0.13271029115869507 0.10699431645078844 137 115 102 0.4776048526747374 2 12615 3 10991 1 10084
4603 0.58971923516655578 -0.16259177612726364 0.11964592266754467 245 229 199 0.38770769910804426 2 12510 1 10083
4602 0.58863686564683726 -0.16517352919088824 0.12211371637007692 187 167 149 0.22795846614032642 2 12604 3 11056 1 10082
4601 0.5981372527566341 -0.18772479957076402 0.13114957974011265 245 230 201 0.25333966893603355 2 12614 3 11379 1 10081
4600 0.30213733373697865 0.441954490094632 -0.17021838411935153 234 210 192 0.37807663051060603 2 13491 3 13052 1 10080
4599 0.30554281541648975 0.43239701294879329 -0.16521785572460976 216 196 169 0.084324285598146725 2 13492 1 10079
4598 0.57470122064124385 -0.13484105335603691 0.10788665473751313 140 118 114 0.24749165124799752 2 7706 3 10966 1 10074
4597 0.57967923141600497 -0.14574005963809425 0.11276774539002717 143 122 109 0.45155547374585597 2 12622 3 9590 1 10073
4596 0.26137508030981965 0.51111428782153179 -0.19909902986115854 133 102 83 0.14877299048114256 2 13568 1 10071
4595 0.26702500000977358 0.50425543136143225 -0.19728272392938531 144 114 94 0.2215684815630522 2 14508 1 10070
4594 0.59662158919699837 -0.17860938370098522 0.12808488780276414 167 141 123 0.2513812185722879 2 9328 3 15037 1 10068
4593 0.27858848336462122 0.48014837971596735 -0.18837838177576172 252 244 214 0.26792541359268979 2 13569 3 8298 1 10066
4592 0.30463894670375347 0.43058292959843675 -0.16607827777942449 161 132 108 0.15721924136207271 2 13595 3 13098 1 10065
4591 0.42029787735301499 0.20652365427011787 -0.062327688359716228 185 152 123 0.1775812984271955 2 13970 1 10064
4590 0.42152500641738744 0.19447862436162952 -0.054742748132070029 205 185 153 0.22785927627690106 3 13934 1 10063
4589 0.5234016670267968 -0.044028317544924929 0.065741191164446919 153 116 114 0.2337939411429642 2 14081 1 10061
4588 0.61239390243794134 -0.21492383962428091 0.14388655392770042 219 203 183 0.13946399097234416 2 12516 1 10059
4587 0.29640290216380666 0.44994874892034858 -0.17499064506442372 174 141 120 0.25382054255137726 2 13594 1 10058
4586 0.3331557819896187 0.37967199410121227 -0.1426436113988207 221 184 151 0.44244278600258941 3 12995 1 10057
4585 0.40652650177667021 0.23638569430559231 -0.07574417515335298 154 118 88 0.13345526707062447 3 14657 1 10055
4584 0.39591866037932821 0.25181603784705425 -0.08229008242909519 251 227 186 0.27917769489589656 2 5922 3 14698 1 10054
4583 0.56636592273507269 -0.11956334087899459 0.099054810440342436 232 220 193 0.35110477617183111 2 14045 3 10972 1 10052
4582 0.59742108658972737 -0.18395588519503711 0.12978865927641628 148 122 109 0.21311090057061774 2 12596 3 11392 1 10051
4581 0.39265003976546842 0.26161511098084939 -0.087189834932399901 253 241 213 0.20980870769042523 2 14204 3 14413 1 10050
4580 0.41535905587819749 0.21773024788743128 -0.066571405469864425 206 176 147 1.7347333505204439 2 3597 3 14539 1 10049
4579 0.42168346176034766 0.20098406699184926 -0.058375253519795396 252 241 199 0.07488748158472916 3 14620 1 10048
4578 0.42382947339676807 0.19834118607830875 -0.057709122176319842 253 239 192 0.07944248277734485 3 13926 1 10047
4577 0.54215406325457693 -0.071563785920350398 0.077282555389661001 254 252 221 0.35476046503426284 2 14074 3 11073 1 10046
4576 0.29520930914370053 0.45528146690233889 -0.17704655608767303 249 238 222 0.33902008131473199 2 13605 3 13076 1 10045
4575 0.38872720739449051 0.26752478816128 -0.08900596007513803 157 131 112 0.42353027832472162 2 14207 3 5579 1 10043
4574 0.36742366668428683 0.28031904525938672 -0.098828180111729377 254 253 214 0.4116024875212469 2 5543 3 5696 1 10040
4573 0.59750626888498493 -0.20376773708454224 0.13403583186141738 192 173 153 0.24991816003161216 2 7788 1 10039
4572 0.29657400690102803 0.42709724915502795 -0.16866949895048802 184 153 128 0.17351790954549451 2 13437 1 10038
4571 0.32789212632855852 0.35995909588406305 -0.13597620307361849 226 193 162 0.29325508493566194 2 13396 1 10037 3 14448
4570 0.54314630918536488 -0.091930857332308824 0.080708521271413036 254 251 222 0.18065624329183461 2 5473 3 10942 1 10033
4569 0.55685367188757307 -0.11435121548273396 0.090402020542627956 248 247 222 0.35011708239250661 2 13947 1 10032
4568 0.32491374601216422 0.36804592825854154 -0.14014650704814566 249 250 221 0.08693878681610899 2 5331 3 5759 1 10030
4567 0.39830071120387539 0.22718747279243981 -0.075266223209665556 225 197 173 0.15319233719812231 3 5413 1 10028
4566 0.59449037749652989 -0.19649984050764932 0.13087070070430762 255 252 227 0.34752740255026382 2 9329 1 10025
4565 0.32717316237475802 0.362550342785663 -0.13715307501691035 254 252 226 0.70618490807064183 2 13395 1 10024 3 14441
4564 0.35256827700134474 0.31482395080114767 -0.11521137845827203 255 254 209 0.158602919290737 2 5536 3 5543 1 10021
4563 0.36228967966264208 0.29303539251754596 -0.10422152978555829 195 165 139 0.3638623566610717 2 13552 3 14670 1 10020
4562 0.53468110642184419 -0.073526058878241249 0.073170561417560676 244 239 213 0.26602278120626671 2 13905 3 10971 1 10017
4561 0.36167781413802069 0.2988845947931571 -0.10829789147236195 254 251 227 0.21109623737659891 2 13551 3 14676 1 10016
4560 0.56756882611313475 -0.14987956376256439 0.10712777786377735 244 231 201 0.14632296346755491 3 11450 1 10015
4559 0.59250393583796213 -0.19963817763342112 0.13056486129721193 246 234 206 0.31318014587081155 2 13930 1 10014
4558 0.32113800103207846 0.36133911382180089 -0.13685653248212548 227 183 164 0.16974874855722258 3 14354 1 10013
4557 0.54880713372914747 -0.11187055064266101 0.08962499744811657 177 146 132 0.0039318593153573438 3 11022 1 10009
4556 0.31199375654918321 0.38595675118661965 -0.14950760873942232 193 150 133 0.25807244473786667 2 13457 3 8092 1 10008
4555 0.57596727460883135 -0.16469165830184607 0.1147579314830032 252 244 216 0.1457567049036777 2 13946 3 11468 1 10007
4554 0.57713140084425596 -0.1667449514165909 0.11579213965461929 196 172 153 0.35017763668772145 2 13939 3 11469 1 10006
4553 0.58305645139637696 -0.18503226966119404 0.12595619930635329 234 224 202 0.51412938939356601 2 13938 3 4844 1 10005
4552 0.26375566522071203 0.48441558638013166 -0.19564434561246274 250 242 213 1.1050265118355742 2 13816 1 10004
4551 0.57081982799119813 -0.1513576827546414 0.10880282645014389 253 251 219 0.23146430083024069 2 13941 3 11374 1 10003
4550 0.34028806759366559 0.3291079684340068 -0.12218565681178989 255 254 244 0.37682563381259665 2 5332 1 10002 3 3615
4549 0.57859696686124595 -0.1693444683607653 0.11712930482831099 253 250 218 0.11969889203367191 2 7807 3 4910 1 9999
4548 0.54929625638457824 -0.10845914314176426 0.088382338247569803 253 250 228 0.10473958829065254 2 5479 3 5818 1 9995
4547 0.25832477357897571 0.49336688396606021 -0.19839216340261889 195 159 130 0.37231621556238431 2 13800 3 13130 1 9994
4546 0.28184232926714525 0.44832824371403124 -0.17786744488925021 226 197 168 0.19700559405478257 2 13417 3 7950 1 9993
4545 0.28333199608260012 0.44364572057585611 -0.17514589768533387 254 251 230 0.23664290259147511 2 13427 3 8121 1 9992
4544 0.3891937797954485 0.23809667038847637 -0.080057209146175159 255 253 215 0.34075642528061495 2 13607 3 13908 1 9991
4543 0.33635482301920244 0.33130152217851733 -0.12253778693071893 243 215 183 0.62483201023455559 3 5561 1 9990
4542 0.31086042449640111 0.40718615536044889 -0.15810393074000861 191 169 139 0.27045305572780309 2 13376 3 13016 1 9988
4541 0.39692775132153069 0.23491430473060756 -0.076877904042057979 210 174 155 0.33302363571922566 2 13514 3 13924 1 9985
4540 0.41448313218170973 0.20226119611109919 -0.062405223401224154 199 165 140 0.38254042856777665 2 14190 3 13983 1 9984
4539 0.46246309185722062 0.10361444524399795 -0.015345060150359281 49 42 30 0.25477867930386361 2 13976 3 14210 1 9982
4538 0.59244161824366959 -0.186907409590097 0.12817420512376718 252 244 211 0.14026696725826626 2 14021 3 11451 1 9980
4537 0.27877830182938801 0.46727191902813137 -0.1849546144513359 223 202 182 0.3575999870488864 3 13113 1 9979
4536 0.34066858061549804 0.35126421926812224 -0.13185512196936938 248 249 218 0.081025467653605396 2 13591 1 9976
4535 0.37586327735557745 0.28262348535474308 -0.10022919865283034 255 253 225 0.082963681692356656 2 13524 1 9974
4534 0.41966479782808858 0.1908163893936615 -0.055952944760567482 255 253 223 0.09338966209512195 2 5466 3 5436 1 9973
4533 0.55056900889606397 -0.099025631179233312 0.087181415766326709 249 227 194 0.52667738849672996 3 10990 1 9970
4532 0.5978323246261793 -0.19141636719234001 0.12969899318315281 245 229 200 0.26366511611461391 2 14056 1 9969
4531 0.25685970888864268 0.51285513521605519 -0.20541987619632371 170 136 115 0.41531940892528318 2 13436 3 9697 1 9968
4530 0.48313599617101638 0.14798991260198147 -0.055337202450982607 118 103 92 0.42580683518998153 2 14087 1 9965
4529 0.26140252534727387 0.49549322480494851 -0.19932856890101761 253 244 204 0.9349912257936156 2 14665 3 13146 1 9963
4528 0.28237286641603665 0.4548257344293733 -0.17998347489511171 218 180 151 0.51504758683093177 2 3725 3 12940 1 9962
4526 0.30933570385767228 0.40210911885625711 -0.15549347533665545 254 249 220 0.22879238143586708 2 13388 3 14608 1 9960
4525 0.41710809461550591 0.18896943655282611 -0.056325093771980583 220 193 160 0.32857108162329035 3 13783 1 9959
4524 0.23945650904678506 0.52683953565951747 -0.21020931667278339 169 137 107 0.22397750035792011 2 5395 3 12691 1 9956
4523 0.31304150265181147 0.40017093607519322 -0.15567582741382796 208 171 145 0.33908605944278353 2 13367 3 12975 1 9955
