# 3D point list with one line of data per point:
#   POINT3D_ID, X, Y, Z, R, G, B, ERROR, TRACK[] as (IMAGE_ID, POINT2D_IDX)
# Number of points: 419, mean track length: 2.3179707038227937
1807 -0.011301188609809576 0.24235154919950203 -0.10681998969215378 68 58 57 0.11976040823907395 2 3063 3 2064 1 3151
6895 -0.16716554683869922 -0.020906684243800117 -0.31891208021436102 154 155 159 0.38952165546331796 3 1542 2 1233
1808 0.38334854774791022 -0.21940544838364309 0.013151806251384667 97 39 28 0.69633380227652097 2 2903 3 2497 1 3152
6896 -0.049456481106294754 0.50323221313251909 0.028063280392844493 156 62 43 0.031910653944425937 3 1212 2 1241
1809 0.04131452163738767 0.29642967264456066 -0.210867681158491 71 65 65 0.1417048441311532 3 5231 1 3153
6897 0.39082529689074808 -0.21354664866802101 0.02401975196446568 122 51 33 0.34122352749430962 3 5125 2 1242
1810 -0.064800849868564284 0.14892721297072598 -0.063706246697647073 61 48 46 0.45478760092618131 2 13585 3 5163 1 3155
6898 0.22429754221587719 -0.015970753634496283 0.036217520089686074 93 36 24 0.023674503807587614 3 2121 2 1256
1811 -0.058922814704646033 0.13555288603156335 -0.05611895468274955 75 32 24 1.71875358594957 2 2838 1 3156 3 5162
6899 0.1382548757206723 0.095660477535449526 0.21355919894974082 145 57 38 0.36191267148367867 3 2683 2 1260
1812 -0.082571747069578455 0.017022041462323834 0.041985376164516024 86 71 68 0.7508487728714428 2 2948 1 3158
6900 0.26101209738058284 -0.27082854768183057 0.33155603351114094 235 220 218 0.79306710874495112 3 602 2 1262
1813 -0.057201504254170442 0.40282343381768898 -0.23998624516326428 49 18 13 0.8994231802962025 2 692 3 1377 1 3159
6901 -0.19727201285269944 0.01046218916580819 -0.44414536228691465 16 13 12 1.1297580294836669 3 1151 2 1263
1814 0.25247299405636742 -0.077221612528304714 -0.059997921548343741 98 85 82 0.19452394087045569 2 2888 3 2316 1 3160
6902 0.39367393061762751 -0.35076335865127994 -0.057826751518151261 113 46 32 1.9160829806305972 3 7070 2 1285
1815 0.040008271281974046 0.29025478164780394 -0.20976477360777587 63 56 57 0.02936556481801008 3 2107 1 3161
6903 -0.062342736612357119 0.071588747319418333 -0.25357458089902635 50 44 47 0.14926375666035005 3 7298 2 1293
1816 0.3193464095384318 -0.10413931635240888 -0.033080230550367115 76 65 62 0.34973482417511975 2 1144 3 1349 1 3165
6904 0.3570870123165194 -0.18369030514537849 -0.19317352988157754 75 31 24 0.63564416035651117 3 813 2 1294
1817 0.38800494835701227 -0.29509897894023501 0.031514474461397143 182 96 71 1.516122043706005 2 12312 3 5386 1 3168
6905 0.33467937530942932 -0.39739594386501192 -0.089742299605141143 154 92 70 0.33642816841705814 3 6710 2 1368
1818 0.30599285906871498 -0.10518152791780977 -0.059904867901583822 108 91 85 0.85412399877785339 2 2898 3 2335 1 3169
6906 -0.042454464398149878 0.23409646817461138 0.2768704628117597 124 120 121 0.1604719165929554 3 1304 2 1390
1819 0.26992492603485113 -0.084937299394657828 -0.054879429606360997 61 46 45 0.11692388181190598 2 2887 3 2307 1 3170
6907 -0.086414738046253076 0.19063252195147384 -0.49294987646602595 107 108 116 0.19263979240077311 3 1842 2 1392
1820 -0.049997090034349968 0.17629348228747616 -0.072762210075307074 66 52 48 0.21343434657712831 2 13809 3 2122 1 3172
6908 -0.061792753429911654 0.49596757589701407 0.013444924217403727 74 66 65 0.38240470048738628 3 2654 2 1404
1821 -0.081678652622694067 0.034528295927377745 0.044999347710384094 40 19 17 0.2513641867081734 2 1121 3 5352 1 3173
6909 -0.043342753674279477 0.46688195375886976 -0.05503433188090788 155 133 129 0.88253870880714691 3 6208 2 1424
1822 0.13179141589743462 0.019821198524685498 0.014750030892778708 86 60 70 0.65269362983880341 2 3085 3 1633 1 3176
6910 0.2892888189275083 -0.0017622468953577522 0.20086946458415827 236 233 221 0.44299425723559138 3 1220 2 1425
1823 0.3232231561059663 -0.094827286047194842 -0.013989208599790665 138 59 43 0.13381165199435777 3 2129 1 3177
6911 0.29562859850659351 0.0050637466903368424 0.24045862079916833 75 61 60 0.033230529454145896 3 1307 2 1433
1824 0.038786118561089794 0.3114178658813429 -0.14699582567115924 179 164 150 0.51855830942516656 3 1496 1 3179
6912 0.27953517554208479 0.012929942552660938 0.23461074190461748 70 55 53 0.098386873705216343 3 1316 2 1442
1825 0.36348274906195188 -0.11846931068938224 -0.017013037536739065 84 34 25 0.25665875292122925 3 2506 1 3180
6913 -0.017376349206089634 0.41614613385586979 0.20239553212544298 86 36 25 0.62565459023046932 3 878 2 1488
1826 -0.045977020075936757 0.10028191513342512 0.05043340579648159 53 47 47 0.37551929651925048 3 2191 1 3181 2 13312
6914 0.047747377681159005 0.1696360848818298 0.31378006861265467 74 66 68 0.92909829943067002 3 1092 2 1507
1827 -0.0771821277845023 0.057658019053212779 0.099847891773155048 80 41 32 0.45377105800347817 3 5290 1 3185 2 7564
6915 0.11337274179602087 0.13110410175125498 0.30156383448780388 114 104 100 0.049590028373984296 3 1289 2 1511
1828 0.028688024517371038 0.3008710069841497 -0.13828015314093642 59 53 52 0.52522593921382521 3 1495 1 3188
6916 0.17481507635970145 0.10700540635464527 0.31496108396195222 120 108 97 0.53653026846551466 3 1114 2 1533
1829 -0.017307049361933211 0.25092231405765342 -0.064015797170862518 98 86 86 0.55521371931166397 3 2071 1 3191
6917 0.20256618436330356 -0.0067064006468138086 0.038324934944189044 219 205 189 0.1506057196172913 3 1433 2 1583
1830 0.15968131272478617 0.0089178589801307134 0.013543791378554968 220 205 191 0.32300318071756701 3 1480 1 3192
6918 -0.019647316345392244 0.39432867421354778 -0.22996381708924707 142 48 30 0.49080020736652014 3 674 2 1592
1831 -0.057095314666717918 0.090194713173383928 0.076770778553431243 126 113 104 0.54288572459659923 2 3098 3 1441 1 3194
6919 -0.048103352661454594 0.1058601356875056 0.083937499333557042 105 50 41 0.23063828832477898 3 1364 2 1610
1832 0.38020403359331845 -0.20678987234857563 0.048964727666553867 88 35 24 1.2645909653897025 3 5144 1 3196
6920 0.22608786834162584 0.02533668873328607 0.17357129595988785 177 159 143 0.077334517518010487 3 1244 2 1623
1833 0.27033783841985698 -0.36004785160893865 0.17383430036288733 105 42 30 0.20364633321227366 2 2924 3 2503 1 3200
6921 -0.13493189789484311 0.50866261593650897 -0.06624875715000858 162 142 131 0.065870943778640056 3 2639 2 1626
1834 -0.0057777195434889064 0.24862977300161224 -0.1100844772761331 66 58 56 0.45888873756064835 3 2063 1 3201
6922 -0.07935280630439083 0.052719063414752909 0.10107687072961863 76 40 32 0.24619028636655138 3 2181 2 1628
1835 -0.050070652906447376 0.07075396816040122 0.039190448894943317 79 31 20 0.47431021443960464 3 5390 1 3202
6923 0.012970837015217757 0.35705299981230265 0.0087285699534454288 211 199 183 0.3975344301357544 3 1075 2 1638
1836 0.13837566977973847 0.010643853876580903 -0.016008801460323172 117 51 43 0.96353523779102002 2 17427 1 3203
6924 0.23898128234194724 -0.32221593724872266 -0.19126354868651929 165 160 164 0.05360863485926845 3 1541 2 1642
1837 0.39883251289973021 -0.14650562257620212 -0.043559921825602047 92 40 29 1.5070144111509627 2 6659 3 1355 1 3205 3 5193
6925 0.29368944392566732 -0.021375946862965432 0.12259716972192485 87 35 24 0.087673573152097076 3 758 2 1657
1838 0.2755529058917664 -0.33888704353262517 0.16391821745549082 88 77 86 0.17961740615451732 3 2119 1 3206
6926 0.34724541260670089 -0.064086766576306742 0.13152267028139311 44 37 34 0.21868092130844269 3 1153 2 1658
1839 0.43798499227690546 -0.16368982833538107 -0.04572432808002827 77 21 15 0.10102860239950862 2 6662 1 3207
6927 0.29305486477174975 -0.037366084537078924 0.11385677307808412 43 33 31 0.15930376860335743 3 1181 2 1674
1840 0.13883010140601695 0.018846078945658786 -0.014829800503561145 98 41 30 1.3335844626155577 2 3551 3 5242 1 3208
6928 0.36469109849742082 -0.061763771981072094 0.13689046156865903 154 62 42 0.79896256375979768 3 1002 2 1683
1841 0.38137585989918632 -0.23275936730361019 0.036570072186938932 85 34 24 0.0070275731845202286 2 2963 1 3209
6929 0.30668852311219563 -0.036284879439161942 0.12950400564560743 173 64 44 1.4107250934677809 3 1654 2 1691
1842 -0.032102311884394719 -0.063671169849166848 -0.20099596584233409 203 203 206 0.71848924306014961 3 7225 1 3210 2 2343
6930 0.33575671283614938 -0.020674201857545441 0.23373164085057824 88 67 57 0.023565082029980675 3 2474 2 1698
1843 -0.042417622993415206 0.093741932102626255 0.033807327331301165 52 43 44 0.27589100912260811 3 2083 1 3212 2 20231
6931 0.18874325476549561 0.077837573005595961 0.22913781495058583 171 66 44 0.28351610250971654 3 2442 2 1699
1844 0.38857664479758541 -0.19579694627603289 0.0093691123058601642 96 66 62 1.0157274406748023 3 1345 1 3213 2 708
6932 0.18043119211956868 0.079505234794009491 0.23027063942975898 170 64 45 0.054697799189508803 3 2432 2 1701
1845 -0.014979290586528063 0.24196369428751324 -0.083911783440018664 36 31 28 0.84915968987892354 2 1589 3 1489 1 3214
6933 0.16642639361311912 0.082627854024828903 0.23013541093258275 176 69 46 0.92621948945600618 3 2435 2 1723
1846 -0.084701997116266747 0.049132257048805458 0.091737315437023778 94 79 71 0.27041553180074551 2 7672 3 2194 1 3215
6934 0.33479718763347222 -0.023342949351173294 0.22938727669589426 104 61 56 0.0079056869818584386 3 1213 2 1728
1847 0.3915182761078338 -0.14112404974722328 -0.027006071028633664 105 57 44 0.89002063260237407 2 16958 1 3216
6935 0.25552101525359083 0.059452804252477696 0.23036232909493959 173 64 45 2.0049782051881602 3 2454 2 1737
1848 -0.020989775668464931 0.23977212241530726 -0.072247208995997847 75 67 67 0.480875162800666 2 3115 3 2087 1 3217
6936 0.27644218657263897 0.021257812608682678 0.25590917586988371 80 65 60 0.021859186670140342 3 2407 2 1740
1849 0.3185970139785621 -0.095965452190202499 -0.016758533683882089 213 211 199 0.43504972587673602 3 2090 1 3219
6937 -0.037957082345627828 0.15842282717885536 0.31000934605046726 68 59 59 0.042422635212151963 3 23687 2 1772
1850 0.38337067462238328 -0.13556455015410077 -0.022344464646374483 105 86 82 0.70798349016150608 2 2833 3 2097 1 3220
6938 -0.026102237425747989 0.15677323428168671 0.31226134004668171 58 49 48 0.31565091902930104 3 5749 2 1784
1851 0.21078905150363653 -0.10325354638259591 -0.23490540747071431 37 18 14 0.041147093319375536 2 2321 1 3221
6939 0.17040522258503948 0.057569745480995048 0.18252980305050459 88 70 68 0.35135207181254491 3 2712 2 1788
1852 0.0051240520672251955 0.011960175349925552 -0.23541419354664098 158 154 164 0.76375160173429879 3 7345 1 3222
6940 0.13736412215662785 0.080623821361919729 0.19067130767511728 68 57 62 0.20642463896888832 3 6126 2 1796
1853 0.33513348724872166 -0.31920842407261985 -0.13991289978056301 173 194 177 0.069911466685203399 3 1950 1 3228
6941 0.24648195158069625 0.011525703556747782 0.18081267570497875 92 79 73 0.072048019718670975 3 2705 2 1800
1854 -0.005165104660441986 -0.020558612402468219 -0.20631374814162481 143 139 142 1.3072040054424567 2 1284 3 7274 1 3231
6942 -0.084008388269731615 0.21095231802283093 0.14738764868533452 54 20 17 0.13185444764478277 3 6194 2 1819
1855 -0.068754679720461079 -0.081606293982740913 -0.141414974401117 29 11 10 0.05174969689803309 2 3261 1 3232
6943 0.17149844020816307 0.05892954038866724 0.16378776643662191 106 41 32 0.32661043553207153 3 2597 2 1832
1856 -0.017276830774106671 0.037777096507448982 -0.24315125335266063 187 188 192 0.19165034636476275 3 7330 1 3233 2 3287
6944 0.37024254786770661 0.29107327939689276 -0.17704773049996048 176 63 45 1.4353919712255263 3 2195 2 1835
1857 -0.0061247370828793925 0.033452341544721965 -0.24100059796115469 178 186 187 0.11718405801064574 2 3295 1 3235
6945 0.14184321867705732 0.098053806555429071 0.21700665689691875 163 63 43 0.15955067408371904 3 2675 2 1858
1858 0.011214260191235252 0.017501017302573158 -0.23737485663937549 219 226 227 0.49336454116206069 3 7408 1 3236
6946 -0.080366097030055539 0.48363966444008533 -0.051043368642187864 157 145 132 0.38677106050542392 3 2577 2 1871
1859 0.0069485555833573784 0.0020316516630781351 -0.22530852053650127 197 196 198 0.48499383564840021 2 3240 3 7291 1 3237
6947 0.24988627549526771 0.021288021152999569 0.20625546851416948 83 63 57 0.37461061768068948 3 5962 2 1880
1860 0.35798436885733376 -0.20110292681209663 -0.22381272044614453 169 178 175 0.039382079768353243 2 2276 1 3243
6948 0.018783074260995989 0.41088815931438571 0.21255050622458493 123 117 117 0.34881980531251977 3 13701 2 1938
1861 0.374814646349375 -0.33875423258216986 -0.1492996673548094 62 80 59 0.9965545958851364 3 1980 1 3249 2 1329
6949 0.11723232034104683 0.084854535916895069 0.14667205910049172 106 42 31 0.68784125233632087 3 2570 2 1948
1862 -0.057730776285697921 0.070839045378622831 -0.25076433802036624 252 254 251 0.50766072979050414 2 3304 3 2014 1 3261
6950 -0.025611899002652514 0.35579308453962222 -0.3144348857979381 132 125 113 0.21680811846857531 3 5651 2 1957
1863 -0.0031381910250078077 -0.021025418347905278 -0.21116843014911599 199 201 201 0.35827106925428437 3 2008 1 3262 2 3263
6951 -0.15551320439610275 -0.1847134228788396 -0.25173565099596135 156 154 157 0.065453760906925507 3 3196 2 1974
1864 -0.046051408896996673 0.060184305896431339 -0.24722303102145901 153 140 137 0.19911210324403905 2 3301 3 7267 1 3265
6952 0.24651685809518917 -0.25907253719803169 -0.26715066350813221 194 197 195 2.6131236555416755 3 1804 2 1976
1865 0.36611964207439995 -0.18965254482676827 -0.22587989526156543 86 70 61 0.094458925476713376 2 8921 3 13253 1 3266
6953 -0.020671041858847009 0.25837739473758947 -0.56195205748523069 10 7 6 0.091465351647193743 3 1768 2 1980
1866 -0.070361416092323173 -0.063357573767688691 -0.1440691949531934 97 83 78 0.30449091337258094 2 3241 1 3267
6954 0.3353484847978806 -0.1913372207638307 -0.22952906060586259 179 181 183 0.31890029477873827 3 3659 2 1984
1867 -0.0081541255071935267 0.2168727158269419 -0.35354497933573242 175 179 180 0.23678539855727712 2 6887 3 7343 1 3268
6955 0.35961521561845788 -0.23534385313304604 -0.07502976432180164 170 173 178 0.13934607916240721 3 1719 2 1992
1868 0.36045123201231072 -0.18466092173145235 -0.2295254995802441 90 72 63 0.54861319504479367 2 9050 3 13278 1 3270
6956 0.16366514912653762 0.11275690207306267 0.30212162989021585 51 21 13 0.71933749849407447 3 2535 2 2014
1869 0.28897820846551497 -0.27972116253758295 -0.13739733231539544 174 180 181 0.66249316722550011 2 2281 1 3274
6957 -0.10008159511687298 0.52885846877249476 0.011633658166189503 158 67 48 0.20910579895155637 3 2688 2 2027
1870 -0.013978198488230656 0.1993109803885994 -0.3365364397067111 189 195 201 0.6635429685867964 3 7295 1 3276
6958 -0.076307311087785101 0.51880194391820444 0.016823430446872824 153 67 49 0.31929163548197659 3 2678 2 2033
1871 0.014391263206340234 0.021255210867702001 -0.23321266658103482 214 218 222 0.25577790555365071 2 3268 3 2015 1 3278
6959 0.34165681721520313 -0.0080907057840732561 0.27327904142935106 69 50 48 0.29051837838071237 3 2425 2 2036
1872 0.0095125608266464802 0.029635724471421428 -0.23171974968068282 173 179 177 0.042190919022947138 3 1881 1 3280
6960 -0.071892989954604331 0.51361829131213299 0.02346513842198656 155 65 48 0.27485638861447914 3 2451 2 2040
1873 -0.055296340438880334 -0.049974583027345587 -0.1519409114838999 115 105 92 0.30547091644380581 3 1852 1 3287
6961 -0.048176862650890627 0.5133686528400484 0.074700428178020889 123 56 42 0.65633073526163821 3 1273 2 2058
1874 -0.019853939494113643 0.043681572553822795 -0.24051824589144435 180 179 182 0.19210808389714157 3 7335 1 3291
6962 0.010487176463205235 0.25061880973907269 0.27826068159599515 177 165 169 0.99271362410155228 3 1090 2 2075
1875 0.36071242175732904 -0.33043748202084289 -0.13775882667531572 165 170 172 0.030214594549766174 2 2408 1 3292
6963 -0.047562755406631518 0.36420749877475073 0.22175555293750177 83 33 25 0.38545506354587433 3 1093 2 2086
1876 -0.021917551424795352 0.19015386398969808 -0.33518665615768034 51 47 49 0.10088752290649537 2 6833 3 7347 1 3293
6964 0.1283003669153851 0.14270558141557463 0.33310684379477296 38 19 16 0.34909097625011537 3 2551 2 2092
1877 0.0069553982975552311 0.0013705437752522854 -0.221308854915195 154 157 158 0.4725755110979038 2 3291 3 7284 1 3295
6965 -0.10291760924435962 0.09846771229876275 -0.37468813404771556 195 194 198 0.10298835236481169 3 3794 2 2098
1878 0.0095061294425946644 0.015958852435822526 -0.23131353179197314 162 158 162 0.54261372635863414 3 7270 1 3298
6966 -0.085991910686516973 -0.0093975159189743415 -0.30264970018107623 185 191 192 0.71865599443381645 3 3897 2 2120
1879 0.29895607086443493 -0.25845474371510879 -0.16070184521468292 128 128 130 0.46162099457163058 2 8125 1 3299 3 6733
6967 -0.072452026234166911 -0.011009353498133563 -0.30317002407591798 191 193 194 0.48485902910798351 3 3935 2 2126
1880 0.00075858553054248591 -0.029758077933963532 -0.2103781891244032 198 203 201 2.2449802184000518 3 7353 1 3300
6968 -0.056010162662547269 0.22281140111410308 -0.47784341268670816 197 202 205 0.078027381815501701 3 3245 2 2130
1881 -0.053342198175905187 0.10524285990586482 -0.26562677532647433 181 184 187 0.086476591192920726 3 6908 1 3301
6969 0.0098073460810333291 0.25917202444632892 -0.51861447806548255 190 190 194 0.35467550022677929 3 1684 2 2147
1882 0.012405449001193359 0.011595527025293177 -0.2287750907142426 191 200 205 0.5396330165962403 2 3286 3 7278 1 3302
6970 0.26684833534503871 -0.31531362676678082 -0.14489018793547997 167 173 175 0.086191779877374586 3 3563 2 2149
1883 -0.02151551277485431 0.18737502733093234 -0.33132247452669117 96 102 108 0.21832703565104317 2 3148 3 2004 1 3305
6971 0.34427438111191655 -0.39962954930441003 -0.10167906893295051 139 74 54 2.6895966097151005 3 6679 2 2155
1884 0.35253966533975645 -0.17981061358329137 -0.2321432455446891 89 69 61 0.049206249134033299 3 14183 1 3306
6972 0.011317641340587849 0.24796435230795694 -0.50502429688781036 195 199 202 2.7716236142448381 3 3325 2 2159
1885 -0.019226130734669736 0.19381275558168762 -0.33559057511314794 169 168 169 0.00098198569918276626 3 7403 1 3308
6973 -0.11397206335900371 0.025353325594480683 -0.30636054163488052 200 204 209 0.17903910152749686 3 3514 2 2166
1886 0.28362663826017898 -0.27198584331966019 -0.17242615056184976 125 125 130 0.010613842991956739 3 3585 1 3317
6974 0.26041843140833437 -0.32533442410908642 -0.14079751595939524 173 178 178 0.12174569471341247 3 1984 2 2170
1887 -0.0049673945702473493 0.0075398837131488471 -0.24904126217007463 212 222 220 0.017040573731322665 2 2326 1 3319
6975 -0.059596717755008792 0.21066478847367795 -0.46270092342396846 179 184 184 0.63636852336145744 3 2921 2 2184
1888 -0.022515577296319048 -0.044222276574989693 -0.20792364292016921 194 199 203 0.25675208656081738 3 7143 1 3322
6976 -0.080564615095883779 0.18971113063100517 -0.4776340445652954 187 190 190 0.12811167652888319 3 4793 2 2222
1889 0.034130728669233563 0.2843101153331275 -0.44319973781124705 113 95 83 0.21164376213993133 2 3167 3 1954 1 3333
6977 -0.088024205440206879 -0.011112728580902452 -0.3059877407378665 136 138 146 0.53121971716141081 3 3700 2 2240
1890 -0.0072041313801155978 0.0048000720144832183 -0.25445930994880073 219 227 223 0.17387594748317933 2 9095 3 6536 1 3337
6978 -0.10955334738170724 0.016061137391825821 -0.32293797932730472 202 205 208 1.8601002660300825 3 3674 2 2263
1891 -0.015665478735419645 -0.022285950658906543 -0.23246802966657276 191 199 202 0.36809628341494544 3 6417 1 3340 2 2354
6979 0.33760136861106377 -0.41745896776480418 -0.11317674290133485 135 75 57 0.49551939740275552 3 16246 2 2272
1892 0.3331405104413292 -0.1939704751130438 -0.24566695102867439 185 187 190 0.18142447758002597 3 1748 1 3346
6980 0.25189658519537483 -0.48921674343524763 0.040266416524043773 145 75 55 0.68654278274827241 3 6864 2 2277
1893 0.03829628055375358 0.26709416807262365 -0.43889946919865996 185 185 189 1.2534134767433709 3 6583 1 3351
6981 -0.036769090707066146 0.22710277617857696 -0.4376138612364302 136 135 138 0.31766828215705223 3 3824 2 2279
1894 -0.075106655963866786 0.080249977168057124 -0.27388193556226426 199 199 202 0.09457086724296275 3 7233 1 3354
6982 -0.056360919189380812 0.15640536037476852 -0.35723990375178022 135 136 142 0.96293746431421834 3 6822 2 2329
1895 -0.0070567096763156601 -0.00042308859487805216 -0.24564275909571992 198 202 204 0.30296771409677459 3 6418 1 3355
6983 -0.050665905329107329 0.16587921400972652 -0.36015457164037512 131 136 142 0.58584731617756869 3 6720 2 2330
1896 -0.0031322722383533802 -0.012474124290542473 -0.2254077195233134 206 206 210 0.43039326739576955 3 7191 1 3358
6984 -0.016457207224148177 -0.03986902043137474 -0.20227598811667449 200 204 201 0.42614182061196682 3 11168 2 2339
1897 0.3794965348279763 -0.33580111962204628 -0.15744059880285163 165 173 179 3.525351609591084 2 2154 1 3361
6985 0.029083377017883785 0.261918474609454 -0.47625447244579772 179 182 186 0.02783720806939766 3 3720 2 2350
1898 0.33258587312526144 -0.19633752234684423 -0.23353493974292244 175 180 185 2.6205879504332752 2 2448 1 3367
6986 0.18372690691799334 -0.090434706642826684 -0.24392425697472953 47 32 30 0.14030436777862049 3 1948 2 2352
1899 -0.0083979186981615363 -0.017466906365480355 -0.21668017789709929 200 204 206 0.39675886535233229 3 2000 1 3373
6987 0.0048163634295265477 0.27826342599632847 -0.48071807990725296 85 65 57 1.5408731942971254 3 12423 2 2356
1900 0.28522538029809319 -0.27606468085480779 -0.15655544698181517 181 187 187 0.86405316967064094 2 7886 3 6770 1 3374
6988 -0.012171084970182686 -0.0094794585924828489 -0.2420217765287305 196 202 208 0.38563854245304174 3 6421 2 2358
1901 0.3638225248460914 -0.36015921975160758 -0.13179489966540925 169 180 177 1.3148900334433746 2 11368 1 3375
6989 0.21362415782823091 -0.12318740735852433 -0.27307791547268589 167 173 171 0.051947737661007271 3 1528 2 2392
1902 0.00081075403137414895 -0.0037059979264106881 -0.22850258727627187 203 200 200 0.20189574386306144 3 7361 1 3377 2 8659
6990 -0.053356295241342451 -0.091217044534600722 -0.20243994462716988 188 204 209 0.015385294661280339 3 6369 2 2442
1903 -0.062943880646012695 0.059045775344262794 -0.25671191584693842 198 201 203 0.38303697812933257 3 7167 1 3382
6991 0.31725361474597213 -0.47251307499138351 -0.16099211038583541 78 58 50 0.082561413002342279 3 8068 2 2455
1904 0.29577244180614309 -0.301008456506001 -0.15370771981614356 175 195 178 1.67314361909908 3 1507 1 3383
6992 0.23540629395804688 -0.4370598428869561 -0.16328302031177899 130 126 130 0.049067366241742155 3 4538 2 2466
1905 -0.0079082936866094987 0.014670131300946963 -0.24700689545902468 187 188 189 0.017191274780569935 2 3248 1 3387
6993 0.25090613589263933 -0.45001327614342718 -0.16520955555973907 225 228 231 0.43794118419790451 3 1844 2 2490
1906 -0.01781139756167513 -0.036431400791363561 -0.2101777485076938 197 200 201 0.52703635785253444 3 7178 1 3388 2 2327
6994 0.27248041960659597 -0.46486532703872346 -0.15806899695191953 117 118 124 0.21547260502799243 3 4626 2 2493
1907 0.31016739928697545 -0.31719290970625713 -0.14583937141990241 183 190 196 2.3001697524006026 3 6686 1 3390
6995 -0.20910905846042316 -0.01827385448313076 -0.42118519938143739 118 116 120 0.076849955967536202 3 1801 2 2539
1908 0.28139075030236549 -0.28619188315881494 -0.15398566369150885 181 185 184 0.42711989540351541 2 2431 3 1996 1 3396
6996 -0.2431217206651709 -0.19073898308997408 -0.30445390656717936 141 144 144 0.18643031075441568 3 1764 2 2571
1909 -0.068062089825509084 0.067357008058781864 -0.25526109942408565 179 182 181 0.23221898781325004 3 2001 1 3398 2 3231
6997 -0.20308383497437432 -0.0048739814822264978 -0.42523649136166419 112 111 115 0.5205006332495743 3 3973 2 2572
1910 -0.010713907972654885 -0.025742167497187038 -0.21473175564893146 198 202 205 0.041392990927557022 3 7170 1 3399
6998 -0.21166415266695163 -0.20414504971683309 -0.29395640495430952 151 154 154 0.052001186281233555 3 1769 2 2580
1911 -0.062334161125218855 -0.036430689922646434 -0.12719694438974705 33 27 26 0.16702388480846198 2 3207 1 3400
6999 0.26040960599814322 -0.47006434046932044 -0.16818282926597308 131 130 134 0.073020198706094719 3 2793 2 2586
1912 0.32936803974189022 -0.25080630039586249 -0.11915685709286694 187 189 193 0.72319431756096886 3 1883 1 3403
7000 0.21444970055880166 -0.43679728761750813 -0.17669439624979411 124 122 131 0.1791451364511277 3 5074 2 2598
7001 0.23902163089605294 -0.45447755102459364 -0.16840841028866479 211 220 220 0.4479394355023707 3 5079 2 2602
1914 0.24514554559703416 -0.48514378344242137 0.047516333969967926 89 26 19 0.049144619568681269 3 1896 1 3408
7002 0.283917989257848 -0.52985544369060944 -0.12270636236607568 73 63 54 0.047716436084161956 3 1135 2 2603
1915 -0.024300437558433214 0.0041063670309245117 -0.16980915577013164 130 118 109 0.48945805761603012 2 7121 3 1924 1 3409
7003 -0.19673922011847636 0.0044633275068551304 -0.42870686081448939 112 105 113 0.64004863369251697 3 2722 2 2609
1916 0.31119456204329748 -0.25203825370024352 -0.13696641140005908 173 182 184 0.29277539688096343 2 8615 1 3410
7004 0.27434026437689257 -0.48376686552190062 -0.17005309542274041 216 220 214 0.33941761620844246 3 1775 2 2615
1917 0.2768864476760276 -0.14059872794851155 -0.19548469982281591 95 36 25 0.9931501181589999 2 3298 1 3412
7005 0.24146563003790844 -0.46057361172730643 -0.17426064762494575 130 124 124 0.042567794024921321 3 4820 2 2623
1918 0.38003830106968411 -0.19570952034471067 -0.18021717075144664 91 71 65 0.89674039177399856 3 11013 1 3414
7006 0.27579505715076758 -0.17249900296608867 -0.32446620053536779 171 174 171 0.79186867324640264 3 1840 2 2652
1919 -0.05159148002627803 0.068158134746615126 -0.19763842128073886 111 101 94 0.23850595105576625 2 3194 3 1644 1 3419
7007 0.23733295781908609 -0.27342134211736069 -0.26144627673550758 197 198 204 1.0925829748229816 3 1843 2 2718
1920 -0.057537759396939774 -0.039990088568401076 -0.13697123580588899 38 27 28 0.3801601572698064 2 9804 3 1937 1 3421
7008 -0.1301344260125849 0.11492768819572895 -0.46358844285589873 179 185 192 0.11711789539425252 3 4823 2 2756
1921 -0.064543547695234404 -0.030674373032568349 -0.099134706041374698 166 150 141 0.2075983221755977 2 3424 3 1604 1 3424
7009 -0.035502817973459833 0.38019760152600801 -0.2676033701008782 125 112 103 0.94686511289073039 3 2311 2 2803
1922 -0.059902604270353307 -0.044313232143177714 -0.13251368345333586 164 159 156 0.77247762530838238 2 6853 1 3426
7010 0.29212787179378313 -0.042007433922664955 0.11401522249940831 92 82 68 0.57087930893926508 3 5989 2 2804
1923 -0.058568873716091312 0.09839520104791448 -0.1889910519631598 55 45 43 0.484687243250426 3 1610 1 3427
7011 0.038396193222260892 0.27795235143640207 -0.21438581423221983 48 43 39 0.12394298011696639 3 2342 2 2812
1924 0.022335409582772258 0.26351002560569686 -0.36999996151318681 189 188 195 0.99927996001587061 3 6920 1 3428
7012 0.39327714519617585 -0.17812482399080581 0.031176603021345912 126 56 39 1.4016211135473653 3 431 2 2819
1925 0.063626156371658624 0.2698725081739371 -0.38960236567543149 56 36 34 0.084967563135286472 3 2010 1 3431
7013 0.23934393801359477 -0.049163116843302698 -0.041663141705563324 182 73 45 0.33258968370559294 3 7860 2 2827
1926 0.36452534293994343 -0.18894822519464594 -0.20170334980811433 173 179 183 0.026702313305822817 3 1968 1 3436
7014 0.26994642067106056 -0.072494369782198115 -0.032715321290088702 210 209 200 0.049260117413735691 3 2098 2 2828
1927 -0.061450123389805641 -0.026786082345570141 -0.10525345342171337 44 29 29 0.28959909227935648 2 9990 3 5442 1 3437
7015 0.2925426233442785 -0.054831005895431835 -0.04984832221023127 166 65 45 0.30838544123451606 3 2088 2 2836
1928 0.3562081901568247 -0.19757377167426066 -0.19545470302710902 128 131 132 3.3078750247845008 2 8713 1 3438
7016 0.28964773713825859 -0.071470800979819768 -0.027553302859439466 178 67 47 0.049037317442800779 3 5113 2 2843
1929 0.35344173944688628 -0.20149579593492878 -0.19050700734341974 175 181 183 3.1705076116693176 2 3249 1 3439
7017 -0.087983003086693934 0.036865650657972884 0.081000482051004699 48 42 38 0.053207030904713418 3 1483 2 2881
1930 0.3204471937046649 -0.25262356596075136 -0.12812378495564877 182 185 186 0.14793767290955409 3 2006 1 3443
7018 0.38566702255958601 -0.12736151737886017 0.0031356122824175887 149 139 129 0.2084805036069432 3 2116 2 2886
1931 -0.06725738794311828 -0.041134424183012233 -0.10904854450810315 40 34 32 0.53993398587452945 2 3222 1 3449 3 1543
7019 0.23931992582955861 0.0036477735992419668 0.10680261570313689 82 35 25 0.37483983683968525 3 986 2 2902
1932 0.282285631776719 -0.13438671399866395 -0.1887667600671524 137 134 118 1.909364093285715 2 3163 1 3452
7020 0.20239076617169002 -0.046024119054837442 -0.053712002953792796 90 78 79 0.3691341989975685 3 14470 2 2907
1933 0.26755039217775906 -0.12402088784333402 -0.19093937964396587 138 128 113 0.45823060116067643 2 3169 3 1565 1 3453
7021 -0.061081691838147198 0.37117326636634695 -0.3238863182814492 136 121 115 0.11641763376571279 3 2284 2 2917
1934 0.2871688990751749 -0.1373962203508384 -0.1907189547274043 51 47 45 1.1449882569756806 2 3283 3 1525 1 3454
7022 -0.037271739227863865 0.35909136312050954 -0.31609087830770688 148 130 123 0.029661163815606875 3 2231 2 2926
1935 0.046876805477574938 0.27014587788813266 -0.35849867096474336 190 187 196 2.6778419961056259 3 7078 1 3456 2 6637
7023 0.38067415109053609 -0.23912650390913773 0.02420332910627309 77 30 22 0.23016800247995073 3 2336 2 2927
1936 0.37563397191657522 -0.19253628278724563 -0.18688840376346946 171 178 177 1.2569153096865822 2 3302 3 2035 1 3458
7024 -0.040868097858096482 0.11349737131850018 -0.10068814850690454 58 22 13 2.1902786022769387 3 2309 2 2928
1937 0.31915572626753497 -0.25800370396652184 -0.12035676058758546 178 185 185 0.94176550237995571 2 3243 3 2771 1 3459
7025 0.39540290740326495 -0.19668379565757091 0.0094627234321185399 228 225 211 1.0751129927847471 3 1344 2 2942
1938 -0.0060217041315863296 0.1880240408511254 -0.29297594650589914 170 172 176 0.24193957920048592 2 3399 1 3460
7026 0.25001992522871475 -0.0038503594921892224 0.1044022230940487 191 72 47 0.16996138308240658 3 2625 2 2965
1939 -0.05808389148610376 0.35326506785201794 -0.36841484354355469 114 95 87 1.3576418989355288 2 3334 1 3461
7027 0.18388305850836861 0.0065289070397308449 0.061269203031273305 87 68 69 0.045784058814670001 3 2213 2 2971
1940 0.024238648354911716 0.26360937455538425 -0.35829009440507531 190 188 197 0.61662801701272318 3 6873 1 3462
7028 0.12553028867317506 0.039954036364197851 0.065040346763225759 54 36 42 0.23720173480786932 3 6074 2 2987
1941 0.31457868049775062 -0.26031602070727627 -0.12483230730103195 177 185 187 0.7609646750879292 3 7354 1 3468 2 8855
7029 0.25546241633641953 -0.30172764006694514 0.31455974568895095 105 42 30 0.21519015887195456 3 2609 2 2988
1942 -0.059031147175285792 -0.033415027247120831 -0.12144626778244863 40 31 33 0.38170842330173366 2 10006 3 5416 1 3474
7030 -0.010517583383138676 0.25655777261664631 -0.07821792539302945 42 33 28 0.10090324648470878 3 1481 2 3007
1943 0.3727448743106494 -0.2117677566352347 -0.17854313663273821 178 183 184 0.096030306846317998 2 3235 1 3476
7031 0.18106047699964772 0.014841405133914408 0.081436499882359722 72 53 47 0.29168664478528372 3 6107 2 3021
1944 -0.065522644793338275 -0.037638379405011309 -0.11395531686367394 168 157 150 0.38849130889767253 2 3219 3 1579 1 3478
7032 0.35324809373936755 -0.084990894405570019 0.086607990139850613 188 165 148 0.56402557070306458 3 2141 2 3028
1945 0.060779214173716789 0.27915013497088026 -0.3562442724502321 183 185 188 1.6325639513839227 2 3452 3 1872 1 3480
7033 0.032699270423354659 0.31938429822756997 -0.13357386542985894 75 64 65 0.072766235981523236 3 2084 2 3049
1946 0.3868360830567536 -0.20199259933259125 -0.16942494901366831 131 130 132 0.45480854484325989 2 6984 1 3482
7034 0.36444350656673286 -0.17060883361128557 0.18408186915702471 88 34 24 0.092004478567905681 3 2613 2 3062
1947 0.36870424076019986 -0.35061468112645 -0.11033433386622117 74 90 70 0.68932259899813753 3 6268 1 3484
7035 0.26897912212736774 -0.046499971939896502 0.01704473584434724 109 42 31 0.06748280767861245 3 1488 2 3064
1948 -0.04994809133649173 0.098331685064946175 -0.24358431619937937 142 140 144 0.020815877200207906 3 7076 1 3485
7036 0.14156199844759942 0.02251697151196988 0.024524279526345803 79 56 58 0.28118527402159754 3 2080 2 3074
1949 0.020014764916670397 0.028585553682424207 -0.22482839835772681 94 84 88 0.60131325331159302 2 3176 3 10471 1 3486
7037 0.13040341374636646 0.025345698561048846 0.0068470633142304104 108 47 35 0.43375553429923563 3 5350 2 3080
7038 0.18663721288831289 -0.015900022605995733 0.019474517477574935 138 113 117 0.16089694801110738 3 1492 2 3086
1951 -0.047037549394664452 0.061057774090360235 -0.21607514027099481 92 87 79 0.4157791984802533 2 3155 1 3494 3 1855
7039 -0.086285289934505807 0.044788882499817925 0.10531854531476116 68 32 23 0.36521407549725637 3 2186 2 3094
1952 0.30802383128084043 -0.2397216652895543 -0.15611643311688117 172 176 175 0.72342816604635773 2 9123 1 3495
7040 0.18616678409147142 -0.0052564251164452088 0.040863550078821968 155 120 121 0.017645116306683653 3 2068 2 3099
1953 -0.13148426058169152 0.40811792128210722 -0.36435796445834451 59 20 14 0.34072521725865762 3 1578 1 3496
7041 0.18514306629111368 -0.0010933894165116767 0.042131383464584359 73 53 60 0.048775761570994752 3 2193 2 3112
1954 0.04254794606291596 0.2777014275093157 -0.40613287959521194 177 175 176 1.3244520312894696 3 2037 1 3497 2 3181
7042 0.32152035631345821 -0.062782993471846182 0.097504424790219882 106 42 29 1.8592492021463551 3 6089 2 3116
1955 0.36593714116802017 -0.20099084311157867 -0.21512511743674587 175 180 184 0.33081870549942949 2 8990 1 3500
7043 0.23995618035922872 -0.033310505217480205 0.033669361253167426 172 159 139 0.36980017700401502 3 2067 2 3118
1956 0.00089134882678826126 0.23812042188228269 -0.36291902958900074 132 133 135 0.017303214539818285 3 2737 1 3504
7044 -0.066286167086149775 -0.048387899431646737 -0.12520173163047382 57 48 42 0.023492116794657826 3 1592 2 3145
1957 0.33148462374393012 -0.24665587487616775 -0.11389915595440801 174 186 185 0.28405647802421741 2 3166 3 1890 1 3508
7045 0.26518572856881584 -0.11775658487190685 -0.1826776347294482 94 37 29 0.075711499768603696 3 1886 2 3151
1958 0.035687760544971955 0.034895439248402806 -0.2393247563763167 130 130 124 0.13610780840279674 2 19038 1 3510
7046 0.26556585368240504 -0.1174045692357738 -0.16252128630294943 83 76 73 0.36991637940148647 3 1851 2 3191
1959 0.017613777536520502 0.015609838014791058 -0.2203544972503356 154 152 147 0.7081673373595222 3 6975 1 3511
7047 -0.0026574900544264744 0.22708182247307429 -0.35658574454205416 171 177 180 0.20753423315999742 3 7385 2 3218
1960 0.020935774428753811 0.0086124490103926185 -0.21619040695221167 253 255 252 0.007762448991365592 2 3161 1 3512
7048 -0.043206013535213791 0.31289052609923945 -0.47335518523389303 95 89 78 0.1081819639756626 3 1727 2 3253
1961 0.31251070164076877 -0.22819970662053371 -0.1731940298505078 187 192 198 0.6778154525522998 3 6287 1 3513
7049 0.1323540742628444 0.059127056080914925 0.1455624600605134 155 129 130 0.93592278235963555 3 1004 2 3260
1962 0.36134259827166526 -0.19212324662602645 -0.20584309178558621 178 176 177 1.302838756763089 2 1300 3 1509 1 3514
7050 0.30325477616561253 -0.13808630396053267 -0.20233056480906697 96 37 26 1.4918069475048346 3 7138 2 3269
1963 0.054934106288505334 0.27485215614180991 -0.39470714242147364 81 63 57 0.81557517868745111 2 1074 3 11149 1 3517
7051 0.35955603698727184 -0.15048716916263749 0.21281107453693746 71 28 23 0.408454774787056 3 2569 2 3289
1964 -0.04737796114881114 0.095168429463836524 -0.23427890343201463 64 56 60 1.1161056119720294 2 1359 3 7120 1 3518
7052 -0.063636359891887567 0.095523198796537395 -0.2734530786717958 185 190 193 0.50355448610784193 3 7344 2 3290
1965 0.014623883362824122 0.25824096544228042 -0.36647430205659337 204 215 213 0.76210242385263394 3 6916 1 3523
7053 0.33970241531139089 -0.12376637595020661 -0.08205770404811856 184 166 153 0.63481203266424058 3 631 2 3362
1966 -0.050932821954287347 -0.038827129684722579 -0.14403160172000451 214 205 202 0.35952519619631856 2 6971 3 1925 1 3524
7054 -0.061873334310571335 0.094009616339412058 -0.12830558380660506 57 21 15 0.067252275393793998 3 2248 2 3372
1967 -0.051089736115169579 0.06524296760933207 -0.21468262816058611 24 11 9 0.17347857772879891 2 3206 3 1863 1 3527
7055 0.40085618186683802 -0.25130600131178488 -0.015475323201913619 84 36 27 1.5329559332664446 3 2363 2 3384
1968 -0.096016929350965119 0.37690069398424492 -0.40547974006137305 139 127 116 0.72672178972763435 3 1626 1 3528
7056 -0.032216818259640977 0.34700800181057478 -0.34633456535415791 144 127 120 0.31534930355388291 3 2476 2 3386
1969 0.30221123362581276 -0.27330851222553249 -0.13137416830891496 183 190 188 0.21728709563493429 2 2360 3 2030 1 3532
7057 0.26562469218526724 -0.1146535934454241 -0.15555912970084126 70 64 63 0.18567273034922679 3 1930 2 3418
1970 -0.00010773762681617919 0.18434911390878705 -0.26875112170900456 192 194 193 0.22643451589887462 3 1910 1 3534
7058 0.40809356611510172 -0.18341135970029052 -0.11393524785250514 101 49 38 0.20472919128005695 3 1446 2 3440
1971 -0.041327974532671799 0.10911019393954517 -0.24433927275284256 179 182 184 0.12270383902714668 2 1988 1 3535
7059 0.060921738350373428 0.28028547563820505 -0.36343831928657883 179 178 182 0.020354167560069664 3 1858 2 3446
1972 -0.12025684141133111 0.51493482015886216 -0.015882261721526174 81 62 62 0.23507355879343295 2 1733 3 6239 1 3537
7060 -0.057088540084858565 0.087196630269719744 -0.16822002608976094 45 16 12 0.20227656058716753 3 2299 2 3464
1973 0.32659801654268245 -0.25782343186906626 -0.10429349120239299 190 199 200 0.35316000034342787 3 6893 1 3541
7061 0.43023023599791721 -0.19601827288274165 -0.075833788369442406 177 176 173 0.93976211726943903 3 2226 2 3486
1974 0.29145393877258635 -0.22888117324947913 -0.21635726917787562 194 196 200 0.42126580369218491 3 3876 1 3544
7062 -0.063421422908099753 0.23676015089192812 -0.51145380565154308 152 158 158 1.2742674334462303 3 7786 2 3488
1975 0.24392629670677543 -0.35789318533917408 -0.25935326772898765 134 51 35 0.17766356311145703 2 3476 1 3545
7063 -0.1122316008914203 0.012336519531825269 -0.32369275537544046 139 131 135 2.2007336143230152 3 3783 2 3490
1976 0.27929005595974565 -0.29429948755476731 -0.15837663034419311 176 207 175 0.52282443555018654 3 12275 1 3551
7064 -0.14783177754275648 0.01521755051491388 -0.33520898347860439 180 180 187 0.1810481013252041 3 3065 2 3497
1977 0.31049345099171166 -0.21142196412068115 0.50209041696762324 163 155 155 0.21418026785221267 3 1054 1 3552
7065 0.25196692401441556 -0.49793426505208033 0.022599600223712379 142 70 52 0.95542735738567242 3 2805 2 3501
1978 -0.065226754251234684 0.20078030861793131 0.15112833053475244 110 36 24 0.60718058564034139 2 1823 1 3554
7066 0.18619583694992053 -0.10732108364977785 -0.25305520864196385 180 186 185 0.71270234078495132 3 3566 2 3507
1979 0.33852798170275455 -0.2332217286132571 -0.12149881909373364 130 135 137 0.29653123816036492 2 10220 1 3563
7067 0.36691288134436667 -0.1892188410232053 0.12401540088305112 68 27 24 0.37308934710517455 3 2175 2 3533
1980 0.0093759836493179961 0.25115803522116775 -0.36714954373533271 122 120 128 0.26163164886014956 3 7327 1 3570
7068 0.22260927370354236 -0.37583905653626776 -0.22329325942487646 190 192 200 1.4876308943163972 3 4962 2 3540
1981 0.01615091063558468 0.19127003259390654 0.30602042368272547 127 125 125 0.053538857751976143 2 1250 1 3576
7069 0.26827182244341019 -0.32428474864150525 0.23534174221697118 179 74 54 0.88974930417687703 3 2753 2 3552
1982 -0.057776103216803106 0.14248543763139354 -0.039522966526769274 78 36 28 0.6954080487715566 3 2113 1 3577
7070 -0.046829969617006861 0.17773701775654419 -0.37308832527806363 167 172 179 0.28876123030898904 3 6765 2 3571
1983 0.23640627109144896 -0.37119908173017063 -0.1246317223595567 217 234 238 0.17849009076106237 2 4949 3 3444 1 3579
7071 -0.019463535586520638 -0.03826748241284908 -0.21585589184538465 184 194 194 0.93204713788971338 3 7212 2 3574
1984 -0.0020809563224325101 -0.013570753294085927 -0.21238392927310346 190 194 194 0.6284465739535382 2 3233 3 7268 1 3582
7072 0.28863387645569205 -0.17894272371242417 -0.32697046612640218 40 28 24 0.98032044410061836 3 16556 2 3637
1985 0.011017348110226579 0.22621086722782552 -0.17883599897465532 178 58 34 0.40354589757401083 3 18588 1 3585
7073 -0.11259489753714243 -0.17776030353081124 -0.21699211611952163 151 152 152 0.13720197697882347 3 1731 2 3693
1986 -0.080235637089923859 0.18694744660017235 -0.46784567103058855 137 132 135 0.24977580034601649 3 3209 1 3589
7074 0.23709011651753487 -0.29376521082439144 -0.22968169951469625 137 135 140 0.51711686901457043 3 3183 2 3749
1987 -0.064811734292621367 0.14081246782721413 -0.082476193091106167 51 42 40 0.51560267134468096 2 6718 3 2103 1 3593
7075 -0.12020037290127798 -0.15252250555986099 -0.24661062917268359 204 205 207 0.078139702977801262 3 2838 2 3760
1988 -0.011223986226147375 0.20447537911391361 -0.33172475376074162 176 184 187 0.10687122845116995 2 3565 1 3599
7076 -0.1206106860637081 -0.18141998139987889 -0.22071585499847257 155 152 151 0.33737827295933076 3 8451 2 3808
1989 0.21016699438706665 -0.32212015846330982 -0.24124663947342756 142 139 145 0.46675959918032478 2 2484 3 2817 1 3600
7077 -0.11910071345201996 -0.15593665184087702 -0.23985591701372783 198 204 208 0.07469795754658573 3 8527 2 3815
1990 0.23592691014818284 -0.46803012767526875 -0.1795284578185842 208 210 209 0.16412446176547049 3 4112 1 3605 2 5362
7078 -0.10002190086651869 -0.12756685835357076 -0.24729154408491932 176 179 187 0.44080406582666354 3 12557 2 3832
1991 -0.06890303883088067 0.067946406962902745 0.10132406567516281 79 28 15 0.37388858947825121 2 3133 1 3609
7079 -0.10282374890443771 -0.12728657077237826 -0.24990616854746872 201 203 206 0.80988124938082839 3 14082 2 3844
1992 0.0015052889885803715 0.201183245513747 -0.30398097933196555 172 172 173 0.28252609187252514 2 7055 3 6998 1 3612
7080 0.22953176875151787 -0.35400991010342775 -0.16045488691941587 138 134 139 0.11819650606845555 3 8426 2 3871
1993 -0.033730371405367866 0.17666286223088057 -0.34206568349489247 130 129 134 0.19174856666233422 2 8736 3 6439 1 3617
7081 -0.11109485028350136 0.13132336176365372 -0.44923841893047595 145 140 145 0.50670284829691215 3 4543 2 3913
1994 0.038421069512375436 0.28370118568514702 -0.43980337318061108 50 33 25 0.26455065914439196 2 1319 1 3619
7082 -0.11148057726117298 -0.14560395094219747 -0.24027416357548026 175 174 180 0.014917794444842128 3 8434 2 3934
1995 0.0039954779793212412 0.21106346701422524 -0.30636517741880587 170 171 173 0.37350908465287214 3 6984 1 3620 2 6587
7083 0.27571603530229388 -0.16140763074624678 -0.32970050728027694 138 134 139 2.1891866110461615 3 7531 2 3935
1996 0.089908591297707424 0.16866379593356479 0.31984948581407779 125 123 122 0.051349233818437222 2 7420 3 13754 1 3622
7084 0.27813653210298206 -0.1697126489451741 -0.32051690809070865 165 171 167 0.14395607200600366 3 4603 2 3952
1997 0.26255687118131077 -0.47800565738977485 -0.16924047313271201 128 125 128 0.44666038120301582 2 5300 3 4960 1 3624
7085 -0.1134292785895953 0.12177493898525502 -0.43794521119999125 183 181 186 0.10929640226705613 3 4811 2 3963
1998 -0.090010276611777532 0.1838103172601786 -0.4867321046465915 198 202 207 0.35244132016538865 3 4606 1 3625 2 2698
7086 -0.10280439338016675 -0.12206957608402388 -0.25722132995563707 200 200 202 1.4208930680908534 3 2939 2 3981
1999 0.26194407290495253 -0.069257378823555288 -0.018909301729734908 127 50 34 2.2225226431642557 3 1370 1 3628
7087 -0.10152634813931896 0.15234798781629502 -0.46507413043258267 177 182 187 0.58171746679544911 3 4652 2 3992
2000 -0.031726106793124952 -0.0078163865161256212 -0.16421107834186149 112 101 93 0.71533478832133479 2 3156 3 1929 1 3630
7088 -0.11835008642919223 0.13200190745392093 -0.47665038063787607 159 161 165 0.94983859435214479 3 4944 2 4049
2001 -0.087931593141240813 0.037204356089777804 0.10471001720711909 43 20 15 0.44351351803160521 2 1141 3 2189 1 3633
7089 0.28755254771852812 -0.45012826130893757 -0.14178456036536172 123 127 131 0.10958771968503814 3 3097 2 4078
2002 0.26529864415652638 -0.44229303356374206 -0.14601384485271829 133 128 122 0.056021389911546066 2 4022 1 3641
7090 -0.13323145733921629 -0.18648619260313931 -0.23442500546876824 188 191 189 0.11230327741042251 3 2896 2 4080
2003 0.23341763640289651 -0.14738128351304658 -0.29961886262409659 165 169 168 2.4244157525632506 3 8315 1 3650
7091 0.22906751751796631 -0.3249738289986448 -0.20854120715253571 138 142 144 0.12164413080884946 3 3107 2 4219
2004 0.027027058011716142 -0.30722324650177618 -0.20951391241136783 133 133 135 0.2139187942072944 2 2470 1 3655
7092 0.29003906818058867 -0.44559841956933371 -0.13512513577974508 203 209 209 0.28372278615247548 3 8291 2 4242
2005 -0.13663156820401842 0.10922683857852834 -0.46087300117792973 188 202 204 0.37330941860484801 3 4852 1 3659
7093 -0.12504440036510411 0.11466824014797504 -0.45180590377491614 183 188 188 0.2649700124308193 3 4966 2 4246
2006 0.30731154966739832 -0.46999983924955058 -0.16509408458064537 155 161 159 1.1982725258426905 2 2488 3 1837 1 3671
7094 0.14284020139751405 -0.30185156579315614 -0.14160038239695874 127 129 138 2.0158344269644051 3 3539 2 4373
2007 0.048925787954659676 0.27181823566592811 -0.25813722536505013 112 38 26 2.6463313010534351 2 6650 3 5555 1 3676
7095 -0.071865809612927628 -0.014061079030759979 -0.30025696372927746 186 193 194 0.37811179149925422 3 3920 2 4395
2008 0.14997463922957402 -0.0068458723366205988 -0.071071303152850804 178 66 42 0.9181656269134828 3 2509 1 3677
7096 0.34031685213670854 -0.35037145601202685 -0.15585428425119702 127 124 132 2.4833248023659156 3 3815 2 4397
2009 0.33197331781160222 -0.10781069607996949 -0.03777830262152581 195 191 173 1.0293833974678526 2 6723 3 5226 1 3678
7097 0.33161235645447917 -0.39539883548689081 -0.12043926069897778 128 132 128 1.1551961617579312 3 1715 2 4399
2010 0.14304607603695166 0.027684932431060474 0.058293007447306221 60 42 39 0.26083069270868942 2 2973 3 1447 1 3680
7098 -0.08735489285604528 -0.12968799263674971 -0.21021798530143554 195 203 206 0.18766072842720063 3 3638 2 4427
2011 -0.070058661511265788 0.26556970242752997 0.13732600646195145 70 22 14 1.5737475799220804 2 1798 3 2700 1 3684
7099 -0.12244437942433692 0.052596398345695614 -0.33642292812919888 184 187 192 1.0294552295128803 3 3890 2 4437
2012 0.34556995978768423 -0.10112182230977279 0.35490936264157957 110 46 34 1.2473296427665757 2 11640 1 3687
7100 -0.10503110111310082 0.1097296572469913 -0.39518969317741637 177 182 184 0.16949414472751489 3 8470 2 4447
2013 -0.082120928111162214 0.084711660772967101 -0.27837207415079379 188 191 194 1.6557582768368977 2 8617 3 7223 1 3689
7101 -0.08131997447785623 0.1726058293627859 -0.44978435426488822 186 192 196 0.59249898650608634 3 3363 2 4453
2014 -0.067318876185448767 0.11641005388914341 -0.31600168988306104 144 142 148 0.14182857266297605 3 6318 1 3696
7102 0.24535773242420258 -0.14942727147593937 -0.29611230643699116 78 65 60 0.67547648868171506 3 17114 2 4462
2015 -0.053827176746900358 0.12151933120212677 -0.29356448845942501 175 179 182 0.34379098893301002 3 7174 1 3702 2 8792
7103 0.22585250162683193 -0.13819117838815295 -0.29526259597364318 136 136 141 1.6167565772567496 3 8193 2 4490
2016 -0.034713625202237253 0.16412414451080828 -0.32082813301530544 132 137 141 0.4173360272178222 2 6986 3 7358 1 3703
7104 0.33777847286652324 -0.3517981553931453 -0.15894000796535163 199 206 206 2.320974106376573 3 12734 2 4500
2017 -0.034418227943622773 0.0069532486428575731 -0.13553003745260017 32 25 23 0.21137524189268247 3 5464 1 3704
